ply
format ascii 1.0
element vertex 693
property double x
property double y
property double z
property uchar red
property uchar green
property uchar blue
end_header
-0.4523629587531614 -0.4489126846003795 1.5465960835103283 81 97 130
-0.0642969462733540 -0.4505982698576013 2.1108234098479493 54 67 101
0.6439367260173008 -0.3167849477310159 2.1464415725424923 59 72 114
0.5032736046385977 -0.2823990215845259 2.3453173331491097 126 123 142
-0.3755146677788849 -0.3353617750513304 1.9101440248976846 159 180 209
-0.3433422596283754 -0.0394202162486082 1.3766977988828182 127 125 136
0.3565711280343815 0.1155415203987959 2.0275058660748284 113 93 94
-0.4170511239774639 0.0406070239729770 1.3171494897506382 116 129 145
-0.0433544837547543 0.1176335526246996 1.7354052467792958 139 155 170
-0.3101122724308380 0.1081420223305949 1.3592404181386071 126 105 104
-0.0589740165373048 0.1695120598363326 1.7239477809437709 142 139 134
0.1626938389541157 0.2020298961189794 1.8786773521236761 85 79 79
-0.3942863994727733 0.1600826957932093 1.5879935669258292 88 88 98
0.7902325438769283 0.2805623742720417 1.9521401650129706 123 130 122
-0.3938792870356440 0.2121074092523813 1.5765527011460874 90 88 91
-0.4444942966783753 0.1840363187290170 1.2696313946437261 141 127 126
-0.3121663027704230 0.2404690221575178 1.3307684798730532 112 96 99
0.0214140731290987 0.3580218950805495 1.7230906529852421 128 138 148
-0.3181900308882396 0.3046753583993427 1.4056588502214278 49 61 75
-0.7422843502643869 0.3167687462898239 1.2626440750021739 202 207 201
-0.7452936373323836 0.3317114899696054 1.2670904337723510 37 44 50
-0.4536693753226656 -0.4188753856501713 1.5410391782052175 147 161 200
-0.4808318381269936 -0.3704073856378692 1.8095442337312178 124 139 160
0.2963348814591904 -0.2713075872323025 2.2927112174291837 34 56 77
-0.3522152991614986 -0.2365269667212515 1.4704210969650582 130 164 199
0.1630931256434525 0.0398677895979718 1.9149617187160939 92 77 74
0.1591755626410340 0.0654471880328678 1.9173149071272282 145 128 118
0.1620266404132713 0.0909021207032954 1.9058953316677338 88 78 86
0.4674442496449518 0.1283551184966701 2.0897477415011525 88 73 80
0.1655383968081628 0.2240827233131232 1.8710547376550855 85 76 79
0.6997911795974856 0.2828440702233871 1.9119118187699469 114 132 146
-0.4378344889462814 0.2266007991744168 1.2600026727206841 136 120 120
0.1253768008105357 0.3375106615621622 1.7739153085787671 141 158 168
-0.1440102033622588 0.3922629686667801 1.6820615528027736 43 50 68
0.0410793923258534 -0.1657350598893431 1.8525413613810549 169 162 156
0.2248002980385834 -0.0404600651545701 1.9928583748237108 181 178 173
0.6404250645033647 0.0768931686080431 1.9124633640206601 188 188 176
0.1873898616400506 0.0715974225226627 1.9493791074555380 87 108 139
0.2159306222815044 0.0750556445420780 1.9626306113029586 56 71 102
0.6853023830566544 0.1066583059679437 1.9451250820046670 56 86 114
-0.2741547006954344 0.0268108543096047 1.6869787461384231 168 169 164
0.4033690729784227 0.0962129214211358 2.0658185092329409 66 93 123
0.7099483549907051 0.1352961799179988 1.9549113734011492 61 88 118
-0.3827903239114837 0.0936329154092749 1.6089250382767406 159 161 160
0.0243302089898864 0.1934180266171714 1.7458159878974790 135 123 99
0.1077126320912350 0.2045554192626209 1.7996208864018981 125 115 103
0.7829034824914134 0.2927134467810671 1.9464379921235422 85 70 75
0.6870253932522528 0.2951808766855282 1.9013452046352664 55 71 87
-0.3300770961255016 0.2010039413488504 1.3307289369258992 180 174 160
0.6871038595999251 0.3433202821426066 1.8898923050050229 32 34 33
-0.3662372670212480 0.3032929461861372 1.5882977827061475 50 57 65
-0.2819703299470476 0.2902276735540159 1.3418709225421157 58 70 86
-0.3716680556073606 0.3173909254455420 1.2852127716028341 146 156 168
0.7282069893810316 -0.0428052279515106 1.9935996938009748 168 171 164
-0.2937424539718859 -0.0041094023209340 1.6824107297126527 134 122 126
-0.2937424539718859 -0.0041094023209340 1.6824107297126527 134 122 126
-0.4227555251113818 -0.0237770522972477 1.3229514972592205 183 188 182
-0.4227555251113818 -0.0237770522972477 1.3229514972592205 183 188 182
0.3883830578788323 0.0824364043918357 2.0518925076098311 154 154 146
0.3872454389987580 0.1056536940883859 2.0476146686059136 167 166 161
0.2590990507729491 0.1292829479051496 1.9689461357356228 98 82 83
0.6503463495197886 0.1480852484077115 1.9038740913476682 118 101 94
-0.2739507303428942 0.0797881591820602 1.6750041605324344 164 165 159
-0.3225512698062163 0.0606776930673524 1.4564279250165582 82 97 118
0.7413969252440240 0.1709612418404340 1.9477289895436547 161 162 146
-0.2934304967356052 0.0947316122871114 1.6597219896598518 104 97 104
0.2596385624853196 0.1589326428582171 1.9620818662841375 128 113 110
-0.3138102792619752 0.1068937893045265 1.6489464657283055 148 148 140
0.3846589389480432 0.1906748902085573 2.0245897885728241 136 133 124
0.1466176057534524 0.1666840737731666 1.8166837633604549 117 113 102
-0.2932262848341411 0.1771822137074302 1.6431196370230154 117 106 114
-0.2932433763113764 0.1774642753086070 1.6430619670734701 117 106 114
-0.3774484002339143 0.1763840941069387 1.5914294116778436 141 140 146
0.2802921687049394 0.2781370148710905 1.9454623782876959 145 149 150
-0.3625482007930221 0.1961131039082772 1.3154967890843277 179 175 166
-0.1314483083678784 -0.3780350536155622 2.0281922227594187 142 145 160
-0.1314483083678784 -0.3780350536155622 2.0281922227594187 142 145 160
0.6753364348436156 -0.0506788434495743 1.9632892947019343 176 180 165
0.0278920960168169 -0.1024908350076645 1.8340767661598323 177 174 169
0.7358219754786058 0.0657573994825917 1.9705932752652675 114 110 109
0.2539456744583536 -0.0524235102547288 2.0145882583297419 74 90 124
0.2539456744583536 -0.0524235102547288 2.0145882583297419 74 90 124
-0.2999113062570730 -0.1067516398585523 1.7145371176818489 87 102 133
0.3635599471332603 -0.0292497929811955 2.0677852283828111 53 83 117
0.2162417576658369 0.1632223150226382 1.9210812113033089 100 121 148
0.6055384819342359 0.2337335315493347 1.8601181769896453 151 151 153
0.0185269836243733 -0.3321004047132998 2.1307799255629001 255 255 255
-0.3318072415341973 -0.1689635569968573 1.4178275400300293 94 118 152
0.7011248408256623 0.0797358464231747 1.9516880817086746 102 111 168
0.7011248408256623 0.0797358464231747 1.9516880817086746 102 111 168
0.0636582546412847 0.1357447074916349 1.7899374505438255 62 86 112
0.6322826558396345 -0.0617157942719759 1.9516085567538839 57 70 104
-0.0019783537036605 0.0752716995834982 1.7572686681816911 154 158 157
-0.0373009564403917 -0.3738834928528928 2.1110684173888035 77 82 112
0.6638588327019677 -0.2414292064734997 2.1254419037385621 94 122 123
-0.5685444942704376 -0.3979018417049182 1.7304093977524093 139 136 155
0.0001288079410767 -0.3039385961032045 2.0611175196869662 154 178 206
-0.0430606216426358 -0.3091343193762323 2.0372431955047481 112 132 157
-0.1264093040088636 -0.3034566054938486 1.9964015448199572 115 116 137
-0.1264093040088636 -0.3034566054938486 1.9964015448199572 115 116 137
-0.0598810263505267 -0.2715043235787096 1.9831899515119897 165 189 225
0.7138620472015437 -0.1614046293596577 2.0908621115065218 103 120 148
0.7260594306311899 -0.1329674609623483 2.0754315817982834 135 167 164
-0.6235749255324331 -0.3110981841343886 1.8548763390049059 182 192 201
0.7437863654697208 -0.1124345880284388 2.0727484872820705 89 112 130
0.7421574002006698 -0.1080619574882935 2.0630204202285323 134 165 160
-0.3292597582261319 -0.2064101607128016 1.7924484976074013 100 105 134
0.7748280655675076 -0.0632367384925285 2.0512751044748243 99 122 140
0.3372310657392920 -0.1179446239133190 2.1606699009565675 113 142 186
0.2052119851345055 -0.1221186932755727 2.0796525730577162 140 164 200
0.2291645554491380 -0.1193635153001533 2.0941296862626460 136 157 186
0.0743734196767756 -0.1314033325961503 1.9250467680554872 75 83 96
0.0743263385775537 -0.1257363607940865 1.9227206644241379 58 73 94
0.6852043202803272 -0.0234080794369830 1.9415169912294306 126 144 158
0.6855581491553627 -0.0231976985070091 1.9403696710359895 126 144 158
0.7387195853975177 -0.0171830110563823 1.9721034705849072 138 156 176
-0.3477932954914503 -0.1476531624358956 1.3857303291149921 152 179 200
0.4004505285287253 -0.0035870667507654 2.0809556135749459 146 160 163
0.2301734481461519 -0.0228390001350447 1.9896162362324976 68 82 109
0.4454179900472133 0.0022124426188628 2.1022544391948346 138 144 156
0.2735912876335339 -0.0171879082277520 2.0137240238353105 62 81 114
0.3486856240707307 -0.0081303733577581 2.0545891433409182 51 70 87
0.0998508540093605 -0.0367515850678015 1.8361072001705980 205 195 170
0.2216466223721437 -0.0193082096574651 1.9729976730181817 136 160 184
-0.0244411193781900 -0.0422678652787001 1.7711428134770224 191 194 183
0.0083217175691303 -0.0380715544863626 1.7891840864846986 172 170 158
0.1947455424393522 -0.0027124926573605 1.9479989473234549 175 173 148
0.2471178325583178 0.0213117766150738 1.9847047205355148 178 177 173
0.4639147061393187 0.0599581370501032 2.0856407078671135 138 145 138
0.6434188512449026 0.0672834837075687 1.9126831924399401 181 181 173
-0.3059347885924346 -0.0394053143715213 1.4429609461128095 174 172 173
-0.3994630914712923 -0.0321377433179166 1.6233052563540487 199 198 193
-0.3994630914712923 -0.0321377433179166 1.6233052563540487 199 198 193
-0.1760393905699111 0.0040481776722357 1.7513678876985248 124 114 113
0.7599889401333416 0.1108095158128041 1.9724798336563805 166 164 152
-0.3521382449571874 0.0015014260369556 1.3635319630478704 101 102 106
0.6611573466701888 0.1230733114135477 1.9151361609575730 119 105 104
0.6222720677087284 0.1213058208994817 1.8907958530611357 172 171 151
-0.3999044532426542 0.0337277778553884 1.6040957966497680 98 91 107
0.3776514661990715 0.1483766797389255 2.0335404001885298 86 81 75
0.6172508347874547 0.1621959228701693 1.8633762005830461 173 191 191
0.6800419805758642 0.1821240042714506 1.9019686527354775 163 163 155
0.1705902559528304 0.1627380873828498 1.8362512192942264 81 80 94
0.2334578087006680 0.1884329490580476 1.9375936202100410 168 172 171
0.3322551667856180 0.1994647255868806 1.9852961860405010 157 159 158
0.7745103856409762 0.2225121344478819 1.9578308477236610 76 76 84
-0.3918515751311681 0.1295760980084630 1.5980513238662253 145 148 153
0.1338585097795568 0.1936376432909856 1.8068817084683386 168 173 166
-0.1740127853841689 0.1893322947580358 1.7085494540143842 89 77 87
0.6610104950671497 0.2605897370989658 1.8818197525624427 169 165 136
0.6610104950671497 0.2605897370989658 1.8818197525624427 169 165 136
-0.4363602497214878 0.1522946887955630 1.2812020168600238 113 100 110
0.3779933456968970 0.3098367966774899 1.9974143021327726 82 73 74
0.2488891728806843 0.3503527165792288 1.9122989080311368 134 146 144
-0.3670861531864577 0.2531290669693035 1.2918871331977846 95 110 141
-0.4003273086091728 0.3062923323390198 1.5435645953253978 62 69 87
0.1111745668268053 0.3755597646347154 1.6401792580597387 63 78 101
-0.0605468100627099 -0.4357004849864776 2.1143361417540834 255 253 255
0.0700104024192730 -0.3264480039046786 2.1126654352858258 150 151 153
0.0768640559795135 -0.3265721131474940 2.1189260694005716 176 183 189
-0.4372755919871811 -0.3646975614918651 1.5376223755816336 114 144 180
-0.5031127379490966 -0.3795726007191794 1.8767603691765318 195 194 199
0.6946881881367251 -0.1903200925481544 2.1045832868649113 103 126 160
0.7551047608967830 -0.0865303297173058 2.0564762100066729 131 162 156
-0.1049844273775569 -0.1056666560622392 1.8175635020052763 175 181 179
0.1497383593213343 -0.0649678555929378 1.9105262036745823 143 169 202
-0.4212329127954465 -0.1200489399320650 1.6497684716425061 129 156 185
0.2292245817688756 -0.0385101049692334 2.0048088087749685 64 76 102
0.3916086079645377 -0.0097056865863205 2.0797341619479277 164 174 173
-0.2867968557357062 -0.0810178614486796 1.4193249272829729 155 147 144
0.7888365359779151 0.0595251751662600 2.0017424095155998 128 117 111
-0.3043871187279001 -0.0679332909229697 1.4495456614121423 169 170 162
0.6216052245466118 0.0427038490616717 1.9083050145489806 177 173 161
0.6931001305552711 0.0975234538793191 1.9541854516770469 61 89 111
0.4423947195915254 0.0915025361455639 2.0831344984557307 86 88 85
0.7937998581434248 0.1363808635942752 1.9830218771502863 155 164 143
-0.2834857038800184 0.0476426250617100 1.6782203556515078 172 171 167
0.6220767736630738 0.1303244072817968 1.8876854341272922 177 170 154
-0.2523887815112873 0.0639486892870878 1.7088119274166660 104 126 165
-0.2828761181794042 0.0686843198785875 1.6739147915457644 100 90 101
-0.2997234324994003 0.0586500934177250 1.4135574941153721 165 177 177
0.2458071863142746 0.1495267767882379 1.9578614845171252 115 99 99
-0.2463657982684384 0.0975983445938263 1.7021585593451880 126 161 193
0.7683683428532483 0.1885293119767203 1.9502039297702827 104 107 112
-0.2978137344774059 0.0729659840369124 1.4141400466907341 141 151 150
-0.3002622382704514 0.0981095428715914 1.4026039004866169 84 84 92
-0.3002622382704514 0.0981095428715914 1.4026039004866169 84 84 92
-0.3002622382704514 0.0981095428715914 1.4026039004866169 84 84 92
0.7464083787555232 0.2177817373448786 1.9422647317351363 111 96 103
0.3060538268381355 0.1957995730099522 1.9682573285839509 154 163 160
-0.2999594918222170 0.1208697350434175 1.3971240302895258 112 102 113
0.1723389106790181 0.2013241153983999 1.8406641315579599 168 171 164
0.4293099768808370 0.2515852199279233 2.0356491959566458 75 73 76
-0.2812871450312037 0.1766585319159969 1.6490458086827944 105 90 97
-0.3974459295164499 0.1666162711856849 1.5656243673062380 138 148 150
-0.4326478324883364 0.1765771936094830 1.2776257501001358 192 177 180
0.3562781376223505 0.3378153940224838 1.9774593712247019 132 141 136
0.3562781376223505 0.3378153940224838 1.9774593712247019 132 141 136
-0.2695401872536607 0.3301229526885360 1.5329566167786250 54 66 88
0.0666213278074788 0.3900404755998515 1.5273821211075409 73 85 109
-0.3775366463871841 -0.2778087566464634 1.4827877360129054 167 188 217
-0.3778389009785886 -0.2106037872401389 1.4308789828229327 103 116 133
0.1013316687235820 -0.1462550446085172 1.8772560482524319 170 163 153
-0.3559306666997196 -0.1498694313965983 1.3961185001243166 148 179 210
0.2173499135931617 -0.0728944957089311 1.9927527828900284 117 112 109
0.2986266560611573 0.0098557828601367 2.0036486850587760 133 112 91
0.3086149634462405 0.0104421163307305 2.0095492410519853 129 108 87
-0.1728983491504651 -0.0290363724686287 1.7547142029898630 182 178 167
-0.3081161127574205 -0.0019692820536267 1.3848818114328338 128 116 130
-0.1341655584392308 0.0590382049628183 1.7774137598446109 100 119 152
-0.3931835406844954 0.0604219348053436 1.5850313541102061 157 157 159
-0.3931835406844954 0.0604219348053436 1.5850313541102061 157 157 159
0.6134949155933455 0.1689842862980959 1.8644687972347507 118 112 112
-0.4795399413884434 0.0710052176233105 1.2771599446740081 130 134 143
-0.3553473555000606 0.1378406304457986 1.4976074123253162 150 149 145
0.7219525961036283 0.3355542863466671 1.9117144207586665 109 143 142
0.0146918205118438 0.3473871414632115 1.6457258423821632 125 148 154
-0.1215753149401453 -0.3525131554316228 2.0126688753954221 200 200 202
0.2921142392919014 -0.3047657453845875 2.3047375958834020 119 123 168
-0.5478522066058646 -0.3501587333998753 1.7230168478026906 111 122 152
-0.5395813048232938 -0.3162522763383713 1.7357579156617515 200 194 196
-0.5395813048232938 -0.3162522763383713 1.7357579156617515 200 194 196
0.0439685951896920 -0.1719136063278079 1.8557042431821082 168 165 160
0.0739698038553635 -0.1545348232223861 1.8658436161778025 192 189 180
-0.2737670549470659 -0.1188264403549238 1.4223368947875801 156 146 136
-0.3032283089208608 -0.0754573262587195 1.4054334845076484 197 197 197
-0.3097166922955575 -0.0481697746636640 1.3961030721910088 125 122 139
-0.3993789799287535 -0.0387173620734505 1.6264015309990776 181 188 180
-0.3981480681434373 -0.0387994750561193 1.6255013744076523 181 188 180
0.1600994866850856 0.0276887964211197 1.9293263034265757 162 149 130
0.7040520565538578 0.0847458490703846 1.9593226068950842 56 85 115
-0.3586679029436894 -0.0078446034045486 1.5345228900426433 167 167 165
-0.3586267429440114 0.0445938061426531 1.5224624616037128 164 166 163
-0.3579800715068973 0.0579122676034669 1.5197592760199206 156 163 156
-0.3579800715068973 0.0579122676034669 1.5197592760199206 156 163 156
-0.4355789705443252 0.0615942436466101 1.3020088616075913 174 174 166
0.1605851375166789 0.2123981830265206 1.8878271788688230 132 132 124
0.1605851375166789 0.2123981830265206 1.8878271788688230 132 132 124
-0.3115775250835043 0.1329934454145904 1.3567084302314587 141 125 135
-0.3583074618481129 0.1654793140385466 1.4957713269598187 142 143 137
-0.3043297399797630 0.1893622496342231 1.3475183031639846 182 177 173
-0.3223522221934097 0.2532565325809251 1.6107215695418657 140 140 138
-0.3971086483683205 0.2512247122311855 1.5665095533741209 66 75 82
0.0608506449787150 -0.3656897947504932 2.1244863107965384 114 129 150
0.0734137407408029 -0.3509651306453733 2.1235598116127710 186 186 198
-0.5755546968420038 -0.4022850826039739 1.7224973242775172 154 153 171
-0.1393823166816230 -0.2721399227066625 1.9823963996329195 101 124 158
-0.1048045795682274 -0.1134712870689123 1.8195870409166408 170 172 161
-0.5005057130141387 -0.1457012591252939 1.3009462189304841 175 180 186
0.7878654730937690 0.0352889112607444 2.0027274520073135 136 117 110
0.3554929429276892 0.0425305158252725 2.0459795739888929 97 81 81
0.0896653951598743 0.0437588619785208 1.8314936175630949 183 176 166
-0.4775925754122546 -0.0318827683125810 1.2960214826283880 191 200 207
0.2460709960760219 0.0878252042689320 1.9703131024680076 176 173 166
0.7624806667451771 0.1287381923819908 1.9683864924778636 177 172 152
-0.4448779212797436 -0.0012638703530842 1.3109575357851195 136 132 147
-0.3173302403183356 0.0139353693024469 1.3790630234768169 115 104 118
-0.3464155135067093 0.0398617136103317 1.3595725078035046 125 123 134
-0.3145928781991862 0.0427841681342034 1.3713794103404520 133 125 136
0.6209685397474559 0.1515794279614217 1.8798450660931363 168 168 156
-0.3584047832087949 0.0687029664773485 1.5173134656054803 155 162 155
0.6892397859040501 0.2811096159980956 1.9041434628630201 109 123 134
0.7463871945170665 0.3036193196674369 1.9224960681845751 157 155 134
0.2709052772231099 0.3046541192463042 1.9378565636994669 137 145 147
-0.4829081316694311 0.2208396600430437 1.2361375193084745 197 194 179
-0.3919564317001108 -0.0481241862137492 1.6330351388902329 108 99 102
-0.3934190605160106 -0.0000730904213590 1.6238485742620976 109 94 99
-0.3430969469040706 0.0084850592739474 1.3655481422808526 130 123 131
-0.3430969469040706 0.0084850592739474 1.3655481422808526 130 123 131
-0.3937168749254086 0.0265949206908082 1.6179395219158694 109 97 109
-0.3068867769221592 0.0515792379079350 1.4263575990633726 164 169 165
-0.2268826380583396 0.1929076464563104 1.6753987674561019 162 162 160
-0.3222803578233063 0.3054304379364911 1.4087184504043961 68 78 87
-0.3441305681419766 0.3143429021285057 1.4488185502232414 60 70 79
-0.3441305681419766 0.3143429021285057 1.4488185502232414 60 70 79
-0.0750131197848879 -0.4384359986727654 2.1122479920503126 255 255 255
-0.4501509945062085 -0.4022864595521492 1.5520552281565434 255 255 253
0.2132021580475890 -0.0701369345987161 1.9915843640845916 75 88 107
0.2132021580475890 -0.0701369345987161 1.9915843640845916 75 88 107
0.3200323629138584 -0.0548477942763024 2.0510869142984851 88 120 167
0.3200323629138584 -0.0548477942763024 2.0510869142984851 88 120 167
-0.2904406052735546 -0.1175152760034556 1.7302051896850767 89 107 145
0.4298464514501717 0.1000593134141394 2.0826969140866214 66 95 125
0.6858263330029029 0.1321309329491957 1.9379919080798451 65 89 123
-0.2753663700317103 0.0523744174728170 1.6816198730834528 169 168 163
-0.3158638586531740 0.0273701555234402 1.3766546207809573 136 123 132
0.0699483742189715 0.1041404952051812 1.8184667985873639 87 113 148
-0.3735618700594125 0.0811708108973411 1.5480925233776677 89 101 123
-0.1541514236870778 0.1244372136675234 1.7412975985574954 92 104 126
0.6999862308510075 0.2827738280687191 1.9115770689245710 114 132 146
-0.4713918871668770 0.1962342810517761 1.2508395833504860 133 121 121
0.1677904291088699 0.3398578521136393 1.8081955047323315 143 155 155
0.3679376179249921 0.4124645235101477 1.9631181241830999 119 137 141
-0.0260310967916163 -0.0733928547967679 1.7977642697050522 82 105 139
0.1591191170975708 0.0427631420278660 1.8775650761905722 182 183 177
0.2371809089578288 0.0853432120739495 1.9670872936942583 166 159 149
-0.3172644129361658 0.0476392356448758 1.6604879432728554 166 167 159
-0.3775112590054759 0.0675687849163596 1.6185498458788432 160 164 165
-0.3179782128641635 0.0725830795521922 1.6551760352611262 159 160 154
-0.2609698589995169 0.1106161803071155 1.6823313081057125 98 109 127
0.2984745438805250 0.1764302480898625 1.9795101708228744 76 102 117
-0.1636671581186810 0.2789557520908423 1.6924057244290536 138 143 147
0.2810051414551737 0.3315224806918911 1.9316944176364417 135 144 139
-0.3949764123467623 0.3218338868244269 1.5469746579418180 124 136 148
-0.2939646650913294 -0.1047409255572791 1.4150002327074160 199 201 196
-0.3196188212048280 -0.0034468431818096 1.6710167622666057 165 165 165
0.6894726441452503 0.1640281465382448 1.9230937396091785 86 98 112
-0.3534420033265435 -0.1846555825708597 1.5454988940232333 150 151 155
-0.2906101750305498 0.0302881406903692 1.3880876578496060 189 193 194
-0.2605930109686672 -0.3126076249557205 1.9614383985145925 102 128 161
0.2314904158748597 -0.1966589466927389 2.2710947058206830 65 87 126
-0.0692379063769550 -0.4435239238822085 2.1182026215964824 80 75 133
0.0889873933345249 -0.3636654320966727 2.1259127158091560 90 105 110
0.2906614363608049 -0.3286184513047892 2.3040991119440331 94 86 159
0.2907172171620683 -0.3172471333614449 2.3095705706127827 85 80 146
-0.5391297542523028 -0.4069570055327560 1.7623830690784166 164 143 200
0.2993503604828843 -0.2617505607296344 2.2845593285216044 135 155 179
0.1893572649917362 -0.2533135169056303 2.2043365876033834 119 146 176
0.3285320592532419 -0.1276971823508108 2.1509126716257061 63 78 99
0.1169620448685358 -0.1245960345932473 1.9504037682752173 146 176 202
0.6554544768525572 -0.0364096729767060 1.9538738189522935 59 84 114
-0.3454049682330652 -0.1688279994261765 1.6903075353719488 113 104 107
0.2873653048270821 -0.0708319096070065 2.0308235383957594 137 123 112
-0.2227925829419527 -0.1335533449076415 1.7921944846762083 144 152 154
-0.2131949926075827 -0.1187607682177196 1.7652418871027147 119 117 122
0.1245856166759144 -0.0466794910732920 1.8759555478125163 161 192 223
0.6232270665786371 0.0168131432139820 1.9169542010012828 112 98 98
0.2757043389258547 -0.0128983820465063 1.9952676197403250 126 154 175
0.0401729521144478 -0.0344894762283684 1.8062863899646722 189 183 167
-0.0353977319911550 -0.0434344770376482 1.7651736342191082 190 191 185
0.1716175219924261 -0.0105485705955826 1.9335020120413691 179 172 156
0.1953040139862759 -0.0026355986884578 1.9473395843682471 175 173 148
-0.1675436817227141 -0.0482124139545426 1.7523779813920644 140 129 123
0.6607810459055735 0.0652400131451096 1.9277790415706835 107 96 94
-0.4000986830178860 -0.0554249977424273 1.6290305590882281 187 188 183
-0.4000986830178860 -0.0554249977424273 1.6290305590882281 187 188 183
0.3725969745342834 0.0477907414122393 2.0518629027244120 112 92 101
-0.3815559470905718 -0.0454065275154486 1.6359394846724609 189 188 186
-0.4011504119182841 -0.0118296357989164 1.6153925633086024 114 103 119
0.1608550317064756 0.1006767208043666 1.9199551402997852 164 160 149
0.1612684712894807 0.1005534696295597 1.9195587536294523 164 160 149
-0.3115206400816443 0.0357538402085579 1.3781391466001971 204 207 212
-0.2902693014395390 0.0515329160935085 1.3713014400871317 164 174 175
-0.2975492850928704 0.0664158947581864 1.4191169904249150 166 169 184
-0.2171046588332456 0.1005917392137721 1.6987918065242102 127 154 173
-0.1961948139487793 0.1095031725624017 1.7129703088650348 160 171 167
-0.3676876434946612 0.1015848868174376 1.5408630132226246 155 161 161
0.6555765942490743 0.2079549521863586 1.8930915804024389 87 78 83
0.6557601846503343 0.2217639550782069 1.8899497864581771 106 85 82
0.1695311723793992 0.2100108763325637 1.8917735569308296 158 162 161
-0.3506295646160434 0.1493940326330880 1.4840342517432030 82 78 92
-0.2814968558557065 0.1766824209269466 1.6491616602683616 105 90 97
0.7889666346681289 0.2721267445903461 1.9568473984340002 93 86 78
0.3560750974305463 0.2839219899048501 1.9905728011869317 139 148 147
0.0461344924793301 0.2464541848659827 1.7770595990354856 69 90 121
0.0631023381890740 0.2486947396598800 1.7868066154556606 80 96 129
0.0624984308160683 0.2486139178876150 1.7874376265452201 80 96 129
0.6965208897121064 0.2877866514963908 1.9079495371531150 55 73 97
-0.4000828418673347 0.2448565315036423 1.5572505982103013 73 81 92
-0.4015080047419243 0.2218022062806101 1.2947014485726711 50 54 99
0.0424309980035028 0.3099095487093489 1.7637312519004043 148 139 98
0.0424732239490449 0.3100161079677168 1.7636852316943614 148 139 98
-0.4220264645724718 0.2490623299073060 1.2723503002819023 116 125 140
-0.4220264645724718 0.2490623299073060 1.2723503002819023 116 125 140
0.0607246484652638 0.3382061558502750 1.7658714964942475 112 139 148
-0.4721795715571850 0.2753341526974458 1.2320824280414511 153 142 136
0.7409924583792136 0.3884224789982763 1.8982559696246262 74 76 97
0.1528495862786880 0.3842115455452911 1.6269137579386515 40 56 72
0.1616756498508688 0.3885391672212665 1.5979993339187559 55 74 91
0.0639316951265253 -0.3666339803640032 2.1146023896978714 97 99 156
0.0639316951265253 -0.3666339803640032 2.1146023896978714 97 99 156
0.0764129937736155 -0.3448539300686528 2.1385315361151003 173 178 184
0.4303028661913124 -0.2896011255096662 2.3091024016342669 69 80 100
-0.4791536876564308 -0.3129809757291905 1.8173675370054356 184 192 195
0.2935912826917438 -0.0643593044977744 2.0396108128957171 115 107 96
-0.2273661790305002 -0.1291378069636100 1.7929400795044699 76 90 101
-0.3912660095580207 -0.1332020718519780 1.3582218931786905 157 150 140
-0.1564241946409498 -0.0466160163076398 1.7570360621447627 139 125 114
-0.3865065906612227 -0.0517625692295620 1.6079949426888995 169 169 167
0.6215440842699949 0.1476399175793427 1.8848292569589817 167 170 159
0.1719584497954144 0.1543897071882059 1.8565459058244596 110 113 118
-0.3969949022797715 0.1529547979416891 1.5746648495714120 87 90 99
0.1753434356261957 0.2102157104584159 1.8395225995461058 162 167 160
0.2395929225185895 0.2343408473876042 1.9303662511914152 188 194 194
-0.5022014506620756 0.2422671568892815 1.2248103916973780 208 208 206
-0.2860513055197842 0.2649348946139782 1.3418753924099400 95 98 107
-0.2860513055197842 0.2649348946139782 1.3418753924099400 95 98 107
0.0448329473785308 0.3407334898480460 1.7573651082859369 80 78 91
0.0168030407876800 -0.2955355863106353 2.0635426410469200 111 122 154
0.3474765664777429 -0.1023118622816009 2.1516854777169190 117 144 163
-0.1294225104551387 -0.1441457983621851 1.8095556282244853 149 143 131
-0.2638504957038847 -0.1548638456926600 1.7291548496462028 175 176 170
0.6698354373384044 -0.0199263756247346 1.9310864692319571 80 88 107
-0.3575360356681175 -0.1446722105512442 1.3720287756451277 124 141 167
0.1103895938727126 -0.0578082137328767 1.8685193765105854 97 101 113
0.2027723678826452 -0.0032046016912294 1.9468239235322815 122 112 100
-0.3555558487533805 -0.0464625971905361 1.5392062580627175 163 164 156
-0.2410150266034007 0.0455405485101816 1.7168096026837369 101 124 158
0.6112744152987779 0.1579549538649859 1.8593351267903206 135 136 141
-0.3847629093576175 0.0814300975088227 1.6106344167087994 159 162 153
0.0363774066167469 0.1247271158937147 1.7854809228083921 100 110 120
0.7470130499488878 0.2179528148266869 1.9407926204239816 111 96 103
0.0794271125785288 0.1894521314817571 1.7785145414121675 162 162 160
-0.2640554706335616 0.1966436162961693 1.6596345893347342 104 95 98
-0.2958404320052713 0.1690106310335068 1.3770696387087813 153 164 158
0.6210620576012413 0.2650364983452083 1.8596830019467148 161 156 153
0.6516956302650094 0.2882300776283935 1.8548919367378229 160 159 139
0.6559192379235009 0.2949205881229248 1.8744050682205848 108 97 101
0.2693784802861595 0.3078007677111049 1.9365229733584131 136 145 140
0.0121500331857591 0.2793606855064433 1.7345033221747383 101 97 96
0.7059204357885502 0.4239557788323872 1.8720093250581502 131 141 143
0.1760816208778930 0.4553756563997428 1.8250755740497890 29 35 49
-0.1194854371597873 -0.3518677066627607 2.0105825601212466 200 200 202
0.0221604997549109 -0.3364465128974388 2.2388674044763950 164 164 164
0.0798538370066328 -0.3013783262854058 2.1115274112630038 178 186 189
-0.1225691762151127 -0.3136607294290380 1.9999751319167478 181 185 197
0.3253502536280197 -0.2151263041452914 2.2757605704574266 147 178 207
0.4227479546443210 -0.0845090915139556 2.1054443190708558 153 151 136
-0.1609268101075211 -0.1210604315227426 1.7902553895322975 171 174 167
-0.2995270364943381 -0.0891720526814569 1.4447076017179434 111 108 117
-0.3499073839940392 -0.0460078512528602 1.5270859774136958 124 123 128
-0.3498056307124230 -0.0459407280860677 1.5270071260418705 124 123 128
0.7030714667586166 0.0996632305481737 1.9570671582615957 61 84 128
0.0355686092164215 0.0308886622112111 1.8092296643121621 124 114 105
0.6831893589230540 0.1726334215138542 1.9130163424651785 64 83 100
0.6833361803921129 0.1723221632023968 1.9129591726290507 64 83 100
-0.2778457782728881 0.0654089038980152 1.3865574026135352 107 113 127
0.3347417755710170 0.1906818271618834 1.9984229740989650 72 91 108
0.0988476136664036 0.1553592761715173 1.7836697121384129 169 163 151
0.6943031055987837 0.2743389133745086 1.9124949288719622 55 70 89
-0.3961110268391203 0.2787238219868163 1.5595865050987228 78 76 87
0.0764000064209010 0.3244203791321022 1.7787746375238545 76 69 76
0.0326303744338009 0.3220824003187929 1.7525823918868011 85 73 83
0.1310875210704360 0.3488173873494318 1.7844906513015617 72 71 79
-0.4547218230247319 -0.3882003515188100 1.5547477755255321 130 142 182
0.1178358759303700 -0.2750921964278119 2.1796907636119980 69 85 121
0.1580890611761593 -0.0272478569592506 1.8714096578526234 176 165 147
-0.4766445407239061 -0.1158625994618472 1.3188338702528237 148 151 168
-0.4783311845045822 -0.0581864129143854 1.3019733531616056 194 197 206
-0.3175401722766269 -0.0383245085631010 1.3907508339242958 110 109 125
-0.3499668123427003 -0.0225334715183482 1.5218269729187925 111 105 115
-0.3045739446985509 0.0222628719031890 1.6678681415082255 174 174 172
-0.3499394890803116 0.0298647681776524 1.5102092877795659 117 106 112
-0.3578772236418314 0.0315436405080514 1.5258410835403367 163 163 163
-0.3071550548008362 0.0377151419361957 1.4306632795589316 171 173 170
-0.1959737158865065 0.0876207666893555 1.7148249211305620 173 175 174
0.7456466856255070 0.2037858697451935 1.9427193569765404 160 155 133
-0.3997191238073959 0.1005357439757170 1.5946550698452684 177 184 176
-0.3090886051983185 0.1466487406790059 1.4070542969074904 153 153 145
-0.3047271684789339 0.2085280302360467 1.6275569157109717 148 154 154
-0.3586129006193483 0.2047401660318363 1.4862459857195860 130 137 130
-0.4725565971128085 0.1832136547311675 1.2557412701231279 142 126 129
0.0331985069983799 0.3195748389648742 1.7531985453511290 90 85 91
0.0690613207618120 0.3257714191822281 1.7733749033980222 100 142 180
-0.4531987157304153 -0.4491186753910217 1.5471384979459009 142 157 196
0.0315660536046226 -0.3228822257651675 2.2310157908776538 255 255 255
-0.3476434428262027 -0.1674910476003113 1.5446408926692070 124 129 133
-0.3938173611590982 -0.1241179182707356 1.6664796470073979 87 104 134
-0.3587571696744971 0.0180915857361508 1.5284243461252516 162 163 165
0.6629995319161890 0.1314054853145511 1.9130781754606996 177 179 165
0.0475362941288153 0.3294318368539554 1.7573558034670282 85 76 81
0.1760124653507364 0.3764959154055356 1.7973371368291380 132 139 157
-0.3455737243321945 -0.0287837385574436 1.3725511419033474 111 110 128
-0.3376635851902710 -0.0100124110341992 1.6571475656389685 170 169 165
-0.3359729951143182 0.1057209527096167 1.6389248581549241 66 80 93
-0.3174103772513006 0.1505050015988342 1.4274448444735184 72 83 85
-0.3174103772513006 0.1505050015988342 1.4274448444735184 72 83 85
-0.3745835454558378 0.3491413085875002 1.4855672282541408 42 56 67
0.1899275708107667 0.4334257635058368 1.8684061714588707 49 58 73
0.2984265730734588 0.4467232820622973 1.9269797337822809 39 48 65
-0.2155643239112608 -0.0910016345199791 1.7497527074757757 172 176 177
-0.3928649075663673 -0.1043109076333897 1.6556509158243538 97 107 143
-0.2728652856444896 0.0018214166496071 1.6920915613318570 174 170 167
-0.3165683215646392 0.0200791931844934 1.6661809562484009 164 169 162
-0.4448702922447008 0.0111924121205907 1.3098613999266564 124 127 136
0.1785793527391632 0.1788759729284262 1.8647187683318889 98 97 92
0.6998859673350240 0.2827747156356825 1.9116718242663315 114 132 146
0.0890059179676203 -0.0682013648391503 1.8642068975611295 177 177 177
-0.3206149338676316 -0.1052863832645669 1.3988659700674906 139 138 143
0.0732343415279511 0.0449422247602666 1.8276642890097174 88 112 150
-0.3748203786414318 0.0169990757103365 1.6303375453231652 165 162 157
0.1745939351303505 0.1086866527960844 1.9218513383336329 162 160 147
0.1699757804821541 0.1658848427656802 1.9050724652023034 147 147 139
-0.1635511161737678 0.2038259886116086 1.7097916129966448 150 151 153
0.3882367162358366 0.2912773003132049 2.0044191953769324 140 147 140
0.0413521811325981 0.2689974793391084 1.7655922423012038 94 83 77
-0.1619522329379609 0.3054267607433311 1.6854849694350402 132 142 144
-0.2608216076948144 0.3590133836162131 1.5419314632872325 100 117 133
-0.3222746770476028 -0.1571260153543645 1.4789261122230644 90 109 141
-0.3543920195265557 0.1207780670558136 1.3264242221187932 169 166 157
-0.3454648927530162 0.3385811761590397 1.4382829567872211 94 111 131
-0.1182717294165860 0.1234962395726480 1.7403200754889232 104 121 151
-0.5263917633870923 -0.3526038198105019 1.7846549635569082 255 255 255
0.0459401937043721 -0.3382004954496931 2.1902444671739119 186 188 187
0.1101964487317416 -0.1346855610387721 2.0255059798790174 132 155 187
0.0746094952702399 -0.1287457862245375 1.9285215769709323 123 139 154
-0.2264694888779309 -0.1259572615243493 1.7860777997716974 150 164 164
-0.3217568267004043 -0.1325825467197927 1.7042508098832221 125 124 122
0.3443047802852869 -0.0159821037251913 2.0535676650961769 170 182 182
-0.0069480917869394 -0.0444731207993740 1.7792966081550852 189 190 184
0.0508380728077380 -0.0332104269165661 1.8119423900149809 170 164 152
0.2380781340205929 0.0006758170094675 1.9718408779934540 122 110 96
0.2345307143863972 0.0022912944939917 1.9696073005519619 184 186 162
0.6391823561263790 0.0629246258429667 1.9156922254987243 109 91 89
0.6338121079248276 0.0645243147316827 1.9128983088903271 98 83 80
-0.3505113023359617 -0.0839177042347502 1.5359240095490503 111 105 107
-0.1959035174604534 -0.0517726638538725 1.7357259175486057 117 109 106
-0.1989216008913808 -0.0508605854186024 1.7326140069858227 175 176 168
0.6194519949062345 0.1181325301757779 1.8911948629844939 94 85 90
0.6194519949062345 0.1181325301757779 1.8911948629844939 94 85 90
0.6501456812449325 0.1258877763045960 1.9079310605479354 101 89 103
-0.3225531417741980 -0.0149891801404736 1.3819929481186672 179 183 169
0.7387555647923374 0.1472775718341987 1.9504735870306895 139 128 122
0.7783408561765194 0.1547637689498116 1.9750044941569476 98 86 96
0.6556232781416258 0.1557176754102572 1.9048545740273937 113 95 95
0.7625042131446740 0.1731701836756418 1.9623182072346124 86 74 84
0.7687611679398632 0.2010998119958315 1.9594195740581797 90 78 78
0.6511817726477541 0.1867926759060603 1.8947603865168483 115 87 76
0.6454622653366934 0.1929095421958242 1.8900028953303631 102 89 80
0.6403417931334225 0.1942371346568202 1.8856867888402356 106 97 100
0.2576509694510150 0.1737454300735324 1.9601500408928627 108 96 100
-0.3235481753092406 0.0846211046454960 1.4623098950579920 149 157 159
0.6490433277916783 0.2019821558036583 1.8900901939058530 153 131 110
0.6490433277916783 0.2019821558036583 1.8900901939058530 153 131 110
0.1664699201711087 0.1762358483480258 1.8961854989357014 73 83 85
0.1666160647799023 0.1762247875003707 1.8958318256337259 73 83 85
0.1658023078931629 0.1795257238294818 1.8982449338949372 145 147 133
0.6616748511815189 0.2317630969348058 1.8918260979156660 124 115 110
0.7067556650703447 0.2477041721790126 1.9079043706557488 157 153 142
0.6457784801903212 0.2497020676364799 1.8787557847265490 146 133 117
0.7524908684428588 0.2790776316878130 1.9353015742206843 79 76 83
0.6243055670954536 0.2669410448950457 1.8615551797281742 96 84 94
0.6563334408587612 0.2845398391054996 1.8764845892360820 91 81 80
0.6501847843500828 0.2862737216448210 1.8728263497147990 82 81 86
0.6244288124951962 0.2847406739157179 1.8578288838442085 89 76 94
0.6559687243599792 0.2891322927223465 1.8755609435195342 105 102 111
-0.3979558634725082 0.2176953992257925 1.5577103145509661 133 145 135
0.2695870042435177 0.2969995720355472 1.9390605029369725 83 79 80
0.7578859087610292 0.3216864023336463 1.9283134313413446 91 84 76
0.6499677817044462 0.3126733811920099 1.8678918258930095 77 69 82
0.7469276962674567 0.3418897966195479 1.9161670123751302 84 73 77
0.7797534515408041 0.3460637640119661 1.9339134214075047 79 74 78
0.7797534515408041 0.3460637640119661 1.9339134214075047 79 74 78
-0.2834150946323107 0.2867299325779433 1.6248267703980896 139 143 144
0.6189966559421810 0.3586615037810187 1.8377143081850256 90 85 92
0.1715756946468609 0.3806247233887128 1.8570020443975483 121 131 132
0.7898071893267108 0.3940217457752602 1.9259960689430675 74 83 82
0.2914943570612086 0.4418776898707810 1.9233279911494614 43 49 81
-0.0661454178476482 -0.3614218252220499 2.0538221334413276 119 128 169
-0.3614816479202532 -0.1822376226770812 1.5870900609658192 164 173 172
0.1722874485977010 -0.0166597528520940 1.9323713761055512 166 161 141
-0.3222791964528807 -0.0662837358577438 1.6660224890458750 140 131 122
-0.3499827043236037 -0.0075283535483934 1.5183846674665484 106 101 107
-0.3499827043236037 -0.0075283535483934 1.5183846674665484 106 101 107
-0.3063228211487770 0.0658897184217320 1.6609768112094212 117 112 116
0.6031919160658994 0.1695544059383060 1.8634696944153601 74 72 77
0.7435272953676749 0.1898231434467200 1.9372594522883757 153 156 145
-0.3997711617894034 0.0906735105557139 1.5914390338200570 88 90 102
0.2821373108562244 0.2287726568019494 1.9542917811939426 151 151 153
0.2821373108562244 0.2287726568019494 1.9542917811939426 151 151 153
-0.2017907594382387 0.1812227377652473 1.6863546434041712 171 177 175
-0.2017907594382387 0.1812227377652473 1.6863546434041712 171 177 175
0.6606124413279477 0.2579228653563406 1.8858622979275079 116 106 97
0.2701184350121210 0.2698720728049839 1.9450061562233500 88 86 89
0.6614860474916139 0.2996554365335163 1.8764275992624180 108 94 91
0.6192132205144862 0.3318065078337403 1.8437507241511353 96 80 91
-0.4388702723351340 0.2369927368864219 1.2624084964515370 193 189 177
-0.2861016565300849 0.2672018774770353 1.3373980306782578 173 180 173
-0.3727284211123648 0.0649893146831712 1.6257170131763468 117 118 123
-0.3764675641089748 0.3007634697026866 1.2803428244520654 80 83 118
0.0017487936378064 -0.0395315620734788 1.7862180929823681 139 129 117
-0.2640383654801678 0.0071698229230998 1.7020057386036964 134 121 115
0.1549866382895625 0.1016804046593465 1.9163998647104705 122 104 100
-0.2951460864202367 0.0334485047286422 1.4081231115108614 167 179 177
-0.3541676902187908 0.0549573527772333 1.6493752161377129 133 157 181
-0.3541676902187908 0.0549573527772333 1.6493752161377129 133 157 181
-0.2880291765362140 0.0566237486672890 1.3845565126079882 180 179 174
-0.3419481383267329 0.0645537584144681 1.4910424473352486 145 151 147
-0.3962708922068260 0.1259956057110000 1.5937392624332580 103 93 92
-0.3491473384548783 0.1268493250258128 1.4982018596769773 153 155 154
-0.3967750257963927 0.2511413076038851 1.5663498483206384 66 75 82
0.0617362124057284 -0.3552118606263476 2.1130360597717250 255 255 255
0.0691871556638063 -0.3500932704635620 2.1605907235617763 110 114 126
-0.1365802002362151 -0.3773948239063551 2.0034222285319676 255 254 255
-0.5723286431113850 -0.3412829193057846 1.7729060794994007 136 135 167
-0.5035100288168017 -0.1376061290214079 1.3048029816846241 252 252 252
-0.3173614794651741 -0.0383418728556809 1.3907320145394730 110 109 125
-0.4008425226000426 0.1004727664896412 1.5954107599143399 177 184 176
0.0344714824114612 0.3294065662372538 1.7526589309619582 125 144 161
0.0328873661425971 -0.2973203392576894 2.1198038474483587 86 92 114
-0.3081787856376992 -0.0288436033150331 1.4445461404782338 172 178 174
-0.3494434884176969 0.0029235070346977 1.5157545058960780 100 94 96
-0.3603909306299516 0.0440905524925377 1.5229535890883670 164 166 163
-0.3497234480093034 0.0543403716881269 1.5050968195257319 111 104 112
-0.3502165269496847 0.1361121213832594 1.4863512135658079 103 93 102
0.6147348255530455 0.2733603295269543 1.8537751458739440 161 162 156
0.0375813012359161 0.2525625032573348 1.7722597991212121 103 122 154
0.0327883483148130 0.3198034742110848 1.7533918938786395 90 85 91
-0.4784334347379545 -0.3695803689552473 1.8083317582049425 158 165 183
0.2866079390004271 0.0763038306781395 2.0076985557036857 104 109 102
0.2866079390004271 0.0763038306781395 2.0076985557036857 104 109 102
-0.3400423457787736 0.0427279397482347 1.4887060366132683 158 158 156
-0.2590683974091668 0.3165913674406651 1.6484272754923956 49 53 62
-0.3424028284419777 -0.1627754134083625 1.5233123604064611 172 176 179
0.1545333956977569 0.0655010435308569 1.9243624995739776 145 128 118
0.1546553402819922 0.0913527967258165 1.9186152224616617 132 121 117
0.1542458982298516 0.1171458892738990 1.9134453203840185 116 102 102
-0.2920758324812022 0.1441406375217477 1.6490263940966146 125 118 126
0.0368719206213341 0.2958410863935270 1.7622412533534855 91 80 76
-0.3923530567564658 0.2613685140802153 1.2799077286967637 176 166 154
0.1855685397445500 0.3694055133035516 1.8891168289241536 30 42 56
-0.2938642832997753 0.0096374013602078 1.6792265401283246 104 99 103
0.1736889835879339 0.1347860284181275 1.9171505322236910 155 155 147
-0.2701599747301678 0.1886425789935414 1.6517070244612335 132 134 133
-0.3618532402166255 0.1549495885237313 1.3217759460441081 180 169 167
-0.1843365586139542 0.2086401097399367 1.6976065471353499 107 100 108
-0.1843365586139542 0.2086401097399367 1.6976065471353499 107 100 108
-0.2930092497147104 0.2504574350265004 1.6268689522899786 102 99 106
-0.2930092497147104 0.2504574350265004 1.6268689522899786 102 99 106
-0.2935998150760455 0.2757563466939340 1.6209947617004521 107 100 108
-0.2935998150760455 0.2757563466939340 1.6209947617004521 107 100 108
-0.2937335674193493 0.3074199125797145 1.6140602816955003 80 84 95
-0.3247279215711041 -0.3323723601049541 1.9399649316445031 113 145 184
-0.3436884681242539 0.0089735160398439 1.6514931327321878 144 151 179
-0.3436884681242539 0.0089735160398439 1.6514931327321878 144 151 179
-0.3289342453640307 0.0327523882375539 1.3658366035123286 151 145 147
0.1854021483818938 0.1634314823490187 1.9294965339694943 80 96 112
0.6876188560324766 0.2624379178395056 1.9064417902347834 52 69 85
0.7123684979818566 0.1678144208267895 1.9464056520998314 91 105 116
0.2125571325278993 0.1630738524905070 1.9236027496284658 100 121 148
0.6295197380904817 0.1590805679453209 1.8875547742986092 72 68 69
0.6192299019336247 0.2194350305592236 1.8689879464019892 58 52 52
0.6242424674813414 0.2311265189037919 1.8692869539433072 72 63 66
0.6239574966447216 0.2356636434005479 1.8687143116910281 65 60 66
0.6189832578366765 0.2416702946127154 1.8642927184251468 63 55 53
0.6346472098503273 0.2504099023240073 1.8714566509143067 73 64 59
0.6525153744099479 0.2751122804465340 1.8763334448398168 141 127 124
0.6193464302679706 0.2774789682288504 1.8560782779603873 68 57 63
0.6244610919113146 0.2893542844156816 1.8566575471971727 70 63 71
0.0648738871825501 0.3227563553386897 1.7726899773558056 101 114 133
0.0648738871825501 0.3227563553386897 1.7726899773558056 101 114 133
-0.2837225237896052 0.0579232046052514 1.3737834313928181 76 97 114
0.6196460738703097 0.2687859539545612 1.8579429622035970 74 61 55
0.4775766162722456 0.1096978927602789 2.0947505803286410 158 155 148
0.6193275002238605 0.2955342672073279 1.8521740578554879 60 54 58
0.4775766162722456 0.1096978927602789 2.0947505803286410 158 155 148
0.6193275002238605 0.2955342672073279 1.8521740578554879 60 54 58
0.2464595957131413 0.1060210800277629 1.9666915096264586 98 84 75
0.0119855998906261 -0.0384738152672139 1.7924648778914607 116 106 104
0.2463992800639861 0.1058569772190830 1.9670445710761746 98 84 75
-0.0107647989374620 -0.0416155528333937 1.7809458362280874 118 109 102
0.2703868640104695 0.1091669410255513 1.9804709386019661 98 80 70
-0.0195058417410311 -0.0428098618863506 1.7743180938969316 119 116 109
0.2703654199166516 0.1091117429669296 1.9804048619528480 98 80 70
-0.3995957472616611 -0.0638278743261488 1.6302188063481600 160 157 140
-0.3178450971618540 0.0774562907467088 1.3664725483428108 137 113 101
-0.3499378925658616 0.0709843735828036 1.5008797339482960 82 82 92
-0.3178450971618540 0.0774562907467088 1.3664725483428108 137 113 101
-0.3988516455383811 0.0782758469578200 1.5923659703429265 78 76 87
-0.4757100298799968 0.0722127947332663 1.2782597339908721 45 55 57
-0.3987834979957626 -0.0021369544837134 1.6094542476692661 88 85 92
-0.4648144610891725 0.0737993652578505 1.2842063521033129 64 65 67
0.0291240480952631 0.3378677715280315 1.7503240665166506 64 56 69
-0.4542046258581946 0.0749140110932902 1.2901475808897205 43 55 55
-0.2987127910274649 -0.0427639082673403 1.4338957334164575 108 105 116
-0.2663314732788122 0.0979787333616589 1.6736741301309097 132 126 112
-0.2989755311806003 0.0363615890585468 1.4164381273095377 91 94 103
-0.3720034421093482 -0.1537263679732534 1.3837860162971289 124 142 154
-0.4433902263423242 0.0761700932443029 1.2958548182426437 54 59 62
-0.2989755311806003 0.0363615890585468 1.4164381273095377 91 94 103
-0.4663262359192871 -0.1505887211252286 1.3132322025353458 145 134 114
0.3599007910487242 0.1283287822600731 2.0274121102655402 102 78 78
-0.3101531115949940 0.1468690965353846 1.4188486204736226 70 73 88
-0.4238741564351690 -0.1453188820522769 1.3362756440852528 148 135 119
-0.2989281187796853 0.1445623667470378 1.3918837224296812 85 84 92
-0.3809208731367584 -0.1391109649878881 1.3581507694277908 147 136 114
-0.1579045703248721 0.1107325372809617 1.7325188856868912 145 139 125
-0.2991012507414022 0.1707810389067732 1.3861133226242073 80 75 82
-0.3520310189706559 -0.1365728808132947 1.3744977598824670 160 145 122
-0.0892983929630428 0.1175617948726396 1.7716480024601566 66 55 49
-0.2954722151636979 0.1017359068634825 1.6597050118934971 90 84 88
0.2160265523939945 -0.1334300235958453 2.0906475704668064 53 85 124
-0.3089704177503949 0.0913238341286868 1.3662330290198343 74 70 84
-0.3503960488795805 0.1884474294344211 1.4751194461671318 68 67 73
-0.3247897621944189 -0.1402108639825409 1.7036643440975325 134 128 112
-0.3083775136564028 0.0912514955672972 1.3650386022085053 74 70 84
0.6199088502897909 0.3401236449080285 1.8410477122678603 126 126 124
0.2458834450551785 0.1495608929525672 1.9578892965871371 115 99 99
-0.4785779485313246 -0.1280064296916467 1.3170842110107421 135 136 122
-0.3048723893504164 0.1201373392168622 1.6483559901520264 62 61 69
-0.3766590275099957 0.0681228395927867 1.6152916754527049 144 140 141
0.2321549280728302 0.1569726470728521 1.9460057759981364 171 170 152
-0.3514746668869912 -0.1127074494216792 1.3859244233624550 150 142 129
