ply
format ascii 1.0
element vertex 696
property double x
property double y
property double z
property uchar red
property uchar green
property uchar blue
end_header
-0.0771180036210009 0.0769429157905419 1.0298139659214312 144 146 135
-0.1523973926255306 0.0235897892918022 1.0015139989345145 59 49 47
-0.0804609595183456 0.0807006984855132 1.0250167050633603 58 67 76
0.0284150504884812 -0.1992721930383725 1.2468651433607350 214 252 255
-0.0804609595183456 0.0807006984855132 1.0250167050633603 58 67 76
-0.1984124798981663 0.0650652896836274 0.7980673813709325 56 50 38
0.3688328656178897 0.0971252533358735 1.1180042877257448 16 29 45
-0.2209802916609382 0.0418336747094851 0.9447248343822299 106 111 114
-0.2230092878121764 0.0603497277014329 0.7816676286645946 129 111 99
0.0803166052905605 0.0920106685237849 1.0583726394371524 150 142 129
-0.0336141321364160 0.0883317976065743 1.0464131104422094 113 103 102
-0.0062898196952402 -0.1849359074054067 1.2094588196674145 127 140 174
-0.1697253227342736 0.1711961210024625 0.7851334808721965 101 104 109
-0.1173487986048670 0.2281086288297566 0.9724218066202200 27 34 52
0.2563919192409349 0.1895320953193176 1.1878755104454404 118 120 119
-0.2695824658464143 -0.1724172447994559 0.8531003624559920 174 202 213
-0.0336141321364160 0.0883317976065743 1.0464131104422094 113 103 102
0.0317713084889815 -0.1806664765580619 1.2303893701396016 69 80 102
-0.2237015474695526 0.0679461990983053 0.7808572546582581 99 94 100
-0.1899234709581873 0.0698727142537433 0.8007557466491029 127 99 88
-0.1899234709581873 0.0698727142537433 0.8007557466491029 127 99 88
-0.0368627243063740 0.0903658679912698 1.0455556706729046 81 67 58
0.0593774306105914 0.0092043343563679 1.0823610335777860 164 158 144
-0.0463421666614727 -0.0488492309724397 1.0770729377827737 121 131 133
-0.2751048565405045 -0.0062679357582115 0.7714617284079039 183 195 191
0.0242423055912140 0.1947375338952048 1.0166643443519892 132 142 154
0.2577066030266447 -0.0807905076638405 1.3138003822390039 128 160 181
0.4673263939694993 0.1082269225730303 1.1449577912040352 95 96 100
-0.1526016421440509 0.0875981474159295 0.9884293223243917 75 71 70
-0.1625635387628857 0.0909233203671592 0.9817819465522993 53 53 53
-0.2670706116274570 0.0719155376283960 0.7595648335680496 70 64 66
-0.2032096609914670 0.0193755176900959 0.8041703255723325 168 159 154
0.2947862824726104 0.1188620532724704 1.2223569095856084 128 128 116
-0.2613646679178078 0.0741495574529269 0.7616433185830711 158 158 134
-0.1748569054456729 0.0936007650658099 0.9699875552750853 132 118 105
-0.2751706397075801 0.0743565615323535 0.7539760903490461 150 150 122
0.1615861430813706 0.0920997355392685 1.1561876926870733 171 170 152
-0.1987951167341515 0.0810484928783718 0.7944915937034758 52 48 36
0.2401206147315666 -0.1469364512219783 1.4354693879281841 254 252 253
0.3433768189982052 0.1244893846201980 1.1702588616445535 61 57 58
-0.2247176775786549 0.0461858111039755 0.9511137611683822 72 71 79
0.3433768189982052 0.1244893846201980 1.1702588616445535 61 57 58
0.0824966449341735 0.1140293036327765 1.0652199290129856 153 147 135
0.1703112435327928 0.0771830602071921 1.1653487142167209 119 108 106
0.5099485060225467 0.0975163868320684 1.1738846447990414 89 94 98
-0.0111600849686594 0.1090782290856011 1.0213231172089883 144 144 136
-0.1947624736623000 0.0941400999042476 0.9596670753512677 67 64 59
-0.0996974924037519 0.0535684492873294 1.0229480714872834 131 132 126
0.0459899047450208 0.1136793099054875 1.0544922417233777 70 63 44
0.1192607889322347 0.0897288867910605 1.1345518445597860 163 167 153
-0.0856571762513462 0.0372302055389405 1.0356278480051984 184 184 186
-0.1748569054456729 0.0936007650658099 0.9699875552750853 132 118 105
-0.0861430536211275 0.1127725214268880 1.0180604867823129 85 74 80
0.3732180141467485 0.1155252907056588 1.1130591701304258 72 77 73
0.3796916008926085 0.1240901559498988 1.0975250839847210 91 80 84
-0.2491576631685965 -0.1336911144802767 0.8224297001618193 56 72 98
-0.2477742959156403 0.0582814238642435 0.7722848696360466 178 175 168
0.2788582045268395 0.1360686081635271 1.2067546094556900 76 63 57
-0.2759950067288439 -0.1192529784717705 0.7990091134245930 103 137 149
0.1262311358237326 0.1246342410942094 1.0929913626385599 147 145 132
0.3746124088566677 0.1357976485771869 1.1096141635337740 142 145 138
0.3982799435310562 0.1370517879225089 1.1038643287901551 120 94 95
-0.1148433742323523 -0.0970982447595962 1.0483729153357444 121 112 105
0.1873773860581465 0.1415350771413563 1.1595375894310702 142 150 137
-0.2546374254440237 0.1189716870313783 0.7555963693306118 76 64 52
-0.2229222365395646 0.0151148885791769 0.9700091555354706 73 64 65
0.4431447837066928 0.1283899787667198 1.1282619721560045 141 133 120
0.1936073325779701 0.1561074310865738 1.1662717411316328 91 76 69
0.3223101358406348 0.1595330516164262 1.2055074236176462 114 125 127
-0.2582444915599731 0.0984401141022182 0.7587873784607106 87 68 51
-0.2607893764202706 0.1032527889927007 0.7517875088452869 77 72 78
-0.1695990114157251 0.1355963971105953 0.8258727680144156 141 144 149
0.3137644888734683 0.1434227644939774 1.2151889874456647 102 102 114
0.2826149352629688 0.1483541869206468 1.2064308925515184 75 73 76
-0.1985579315919971 0.0910543695109098 0.7922903750885631 126 98 87
0.0673328900995601 0.1485858744807265 1.0666445023455522 19 36 56
-0.1688447058902921 0.1179629041307628 0.9730707358417886 123 126 115
0.4978138110564601 0.1714044202453159 1.1539789411105705 94 80 67
0.2160988656641025 0.1405367445372716 1.1736464154738797 91 85 85
0.1705686724862846 0.1519839493255924 1.1476480007128549 91 78 87
-0.2898766568904030 0.0882663826548345 0.7451249891069170 124 118 106
-0.1902378697468753 0.1641459660353894 0.8558031092612064 116 124 126
0.0628798681987778 0.1505115135858047 1.0638894319586840 93 104 136
0.2397934392692516 0.1714087182235740 1.1824312577736380 82 70 72
0.0396418228350808 0.1908159445874527 1.0425114961819606 90 85 91
0.3955177701142611 0.1723217663370905 1.0968779938194642 158 149 140
-0.0861698998854324 0.1523566511950323 1.0085193998653317 127 121 123
-0.1809295211114396 -0.0773073544403858 1.0105497134214030 127 126 124
0.4714959339413314 0.1793021300580049 1.1356798771245233 153 147 123
0.0067642902128604 0.1866485781191163 0.9354559290619958 119 128 135
-0.1738749463687201 0.1293918857647572 0.7960397446058373 133 98 92
0.3133696559847665 0.2086653917338833 1.2087882491571444 43 50 69
0.3610080925224527 0.1987100006982096 1.1387851258487569 107 135 156
0.2338248567341216 0.1944717659707974 1.1745211860797637 120 113 105
0.4786016953050554 0.1290400910860941 1.1519046568920626 106 86 95
-0.1361476511062250 0.2404219754041087 0.9430463747908208 44 57 65
-0.2200508558687560 0.1290134452366694 0.9435127356814582 46 44 57
0.4566890209756858 0.1843899225307671 1.1330762415674318 114 132 134
-0.1956771579463731 0.0939068831727332 0.8835217863729452 67 68 73
0.4970825809343082 0.2110378982228214 1.1431116828397230 130 133 112
-0.1665483237254706 0.1468019602255329 0.9680229240142250 66 66 56
0.3028876774047214 0.1568407606410665 1.2188402173139536 55 57 69
0.0615298503345167 0.1944519849016192 1.0542385521696138 100 142 180
-0.1443243827589476 -0.0745516425266873 1.0289159666080252 131 130 135
-0.1987688136789860 0.1134312229095996 0.7873074100081614 81 67 54
-0.1959222804430274 0.0994896537325902 0.8825076312517921 64 67 72
-0.1517632575237789 0.1700181931419373 0.9690538058397713 56 56 54
-0.1647514700137288 -0.0411602271436942 0.8569160188677424 114 112 123
0.4749094120877677 0.2112204653463310 1.1311942032615070 90 70 79
-0.1522840485895184 0.1124850896063842 0.9818443279584073 155 155 157
-0.2641645603985872 0.1188063910021109 0.7502676397237822 109 83 84
0.1734891980949930 0.2116824133905012 1.1369914889982484 72 61 75
0.1709891599635033 0.2136238087924398 1.1360835332144132 113 113 115
0.4720659668694902 0.2248093388623333 1.1265327430549301 130 128 116
0.3740986442852501 0.2161062110617273 1.0908770488654922 124 130 126
0.1724605687328047 0.1646842504772697 0.8043239393237706 53 56 65
-0.1650998867385280 0.0051731691341370 0.8468610794593654 109 104 111
0.3007408795713603 0.1880001798812083 1.2100215217472454 92 95 112
-0.2712234058172409 0.1453026268554581 0.7411582635958156 65 54 36
0.2506278812516077 0.2186008302816178 1.1775690501355838 130 127 122
-0.1525715388409752 0.1244891894183884 0.9793647936872274 127 125 128
-0.0792187785560737 0.2260798531255439 0.9450703985174697 58 75 93
0.3950527729616545 0.2192866791702045 1.0854829503421399 135 132 143
0.0435879068576840 -0.1962743443337186 1.3291022849557461 255 255 255
-0.2095184350729554 0.1539810454142746 0.7675574069336166 138 131 125
-0.2245725137496908 0.1279772202846061 0.9366501072840394 119 115 129
-0.2723207355830317 0.1434701981854531 0.7400906430613142 136 108 87
0.3829170536192760 0.2222443938889648 1.0769192613927963 144 150 146
0.4565891163215403 0.2125896717638146 1.1250417465687694 104 117 125
0.3713016103927574 0.2261739550962913 1.0955188182650009 120 134 134
-0.2238571755990545 0.0599618866561212 0.9525510490933228 169 174 168
0.3405121549244638 0.2384265597461784 1.1516720080559617 113 118 124
-0.0111092698965766 0.2044426719891857 1.0001970504586344 125 134 141
-0.2241326375528157 -0.0474721400325871 0.7977257774854409 143 144 130
0.3140847782529533 0.2315071864180636 1.2042635588261372 59 58 72
-0.1883509033821892 -0.0607828415297260 1.0005826587191267 135 164 194
-0.1682999328077113 0.0880886309298558 0.8445112726901779 64 71 89
-0.1456480375252724 0.2064436617340213 0.9645242679995573 92 99 105
-0.1967342825783475 -0.1028282546193933 0.9233141046111651 124 129 133
-0.1031238798717958 0.2101792917725264 0.9822614418813018 118 131 140
0.0392919605837012 0.1923903179586840 1.0421451827967114 81 74 55
-0.0796712473761044 0.2130115101321967 0.9944693477634579 124 121 130
0.4640369849845118 -0.0073345126283500 1.1637735195234231 153 141 117
-0.0623045363572939 0.2072698825441367 0.9557690624574668 23 44 65
-0.0089540261615610 0.2163348669247801 0.9947168622165000 101 109 132
-0.1659548427795448 0.1518433969749841 0.9658675715797650 62 67 71
-0.2091150288027448 0.1569505466598085 0.7703679100035504 102 85 69
0.4470843867822039 0.2519000952696803 1.1047610829087431 117 120 129
-0.0712443927348960 0.2130927004662378 0.9518669668662946 72 76 88
-0.0800162763990619 0.2128121018371416 0.9466222246828655 84 82 96
0.1845176234897205 0.2232418148908247 1.1411141261395890 67 56 54
-0.1154867268797340 0.2276112735911941 0.9781710561787282 1 18 44
-0.0108066158564749 0.2125961623676626 0.9985039585816193 104 121 151
0.1554505773886194 0.1503738271307412 0.9159112147981517 101 97 96
0.3026508139435929 0.2416043374970845 1.2003538161076173 106 112 124
0.0782264523665984 0.2257664182117225 0.9482147830920862 39 60 77
0.0407962950024383 0.2260994098194269 0.9501790960311659 33 49 65
0.0434514928067701 0.2265210617945163 0.9519146520745811 31 49 63
0.0742926957940074 0.2265120284029518 0.9359895512946310 45 62 78
0.0742926957940074 0.2265120284029518 0.9359895512946310 45 62 78
0.1927089035392222 0.2370972476423464 1.0897023223481521 43 48 68
-0.0747015985320649 0.2292908975302335 0.9480912398584928 36 48 70
0.0481666606536701 0.2307881347313530 0.9344421003868172 85 87 108
0.1413600781627957 0.2374212751888734 0.9401491822893252 46 61 80
0.3739657028041373 0.0233032300895520 1.1340521862414430 255 255 220
0.1209605040062413 0.2353991741020290 0.9303618982839053 45 61 74
-0.2148518105178684 -0.0176074281147112 0.9754981714328166 118 110 97
0.1357557903783354 0.2378064810333576 0.9266123220556090 50 63 80
0.1291297348210806 0.2381477595067095 0.9258426138159583 60 69 86
0.1746891340578478 0.1494813908584423 0.6443192609536545 14 25 47
0.0960924188489951 0.2327711015148154 0.9032956539389062 56 69 86
0.0790808186824100 0.2321348943274601 0.8996869283080601 39 55 71
-0.2536105813085285 -0.0340619417755466 0.7896369293844711 74 63 77
-0.2734470834741771 0.1763473004112383 0.7300840078928577 139 118 113
-0.0586531194360347 -0.2198311545659538 1.1939910286941950 111 110 115
-0.1132458653272001 -0.2043042768507821 1.2006451058850771 136 152 168
-0.0731768824510946 -0.0638781081392862 1.0643431123799214 179 177 180
-0.1177629604304276 -0.1906787440495373 1.1874637220943460 109 130 161
0.0566277061598222 -0.1893029363110972 1.2651853184363109 119 108 124
0.5801887676270637 0.0500091304758408 1.1807069888343953 73 65 150
0.2505296088895091 0.2229258362081651 1.1764466189037068 120 131 123
0.1479118372657332 0.2391843787554146 0.9334528856650182 50 66 82
-0.2100961464276523 -0.1279590269968981 0.8353521526664680 96 86 74
0.4087265694109291 -0.1849515623917757 1.2694832635723903 255 255 255
0.4112344521104583 -0.1817629307571063 1.2688181426597780 115 106 151
-0.2890041325654013 -0.0171548356376008 0.7675163447293276 115 120 114
0.2014992042138333 -0.1865927908952415 1.3706468692281177 103 98 130
-0.2765680491203533 -0.1684096329031521 0.8529219301401703 120 161 205
-0.1655650917431600 0.1870456032458636 0.9581682711701009 121 140 134
-0.0122100403287194 -0.3094582722980155 1.2845973792490029 61 50 119
0.1337521900104010 -0.1786905792845444 1.3275531729752219 232 255 255
-0.0506490672696654 -0.1538257572941331 1.1858570393924766 142 146 157
-0.2176878205513775 0.0014752310781337 0.9700238040856662 76 75 80
0.4111505489447635 -0.1761045982037285 1.2661336334946867 104 96 145
-0.1719077408050133 0.1159843638739934 0.7991550742439077 83 70 77
0.3834246320467539 0.1083628194154770 1.1023967407126101 189 180 165
0.2018388699019707 -0.1734379105376604 1.3663757563110308 124 126 165
-0.2176878205513775 0.0014752310781337 0.9700238040856662 76 75 80
-0.0744508335361481 -0.1971436816063285 1.2120840617099473 97 89 112
-0.3080007854603450 -0.1914524841091544 1.0390712215327724 200 194 196
-0.1719077408050133 0.1159843638739934 0.7991550742439077 83 70 77
0.2018388699019707 -0.1734379105376604 1.3663757563110308 124 126 165
-0.2238914690166712 -0.1408876635643159 0.8282396218009439 158 151 141
0.0646249096574924 -0.0952974811976869 1.1094681556753818 192 189 180
-0.0485631412435780 -0.1955893996030740 1.2321958000539102 6 40 52
-0.3080007854603450 -0.1914524841091544 1.0390712215327724 200 194 196
0.1514006972082737 0.2399259261488155 0.9356715431355870 45 58 74
0.3301305538420120 -0.1461890161629608 1.3929236413042734 155 165 175
-0.2747440108574405 -0.0063713334695403 0.7714023801024743 142 153 136
0.1977903097894735 -0.1732032584837117 1.3598475823834928 255 253 255
-0.2796164534739106 -0.1462303023873238 0.8233585438322155 245 255 255
0.3298158585779556 -0.1309529996674884 1.3888311471895407 120 132 156
0.2893287285322700 0.0521508753302076 1.2375905543444863 61 62 57
0.1654036116799369 -0.1562028035815246 1.3306003130884461 106 127 156
-0.1025939821297102 0.0447220754304867 1.0297647824547975 132 128 127
0.2396874341384458 0.0422822263375709 1.2104470315459233 117 101 102
-0.2040801521120632 -0.1383360169532427 0.8373676312755096 34 56 77
0.0318116568754515 -0.0960307113949212 1.0939160365431095 128 124 115
-0.0620373764804695 -0.0890859184253360 1.0759965462885930 96 85 65
-0.4113282715062502 0.1814258069921681 0.7758411335547768 234 231 226
-0.1481337431457818 -0.0807231020037209 1.0312974672943116 123 107 110
-0.0614136500888224 0.0250208998639523 1.0610191110660132 50 71 100
-0.4093126086898873 0.1861053904628107 0.7695872916015178 132 49 79
-0.1711413334635035 -0.0883004512981432 0.8606745768859619 120 135 164
0.3382372908705996 -0.0997879253736519 1.3402951157020662 97 103 139
-0.0614136500888224 0.0250208998639523 1.0610191110660132 50 71 100
-0.4102654411665527 0.1872759442315435 0.7750864177496166 159 62 131
0.0516722559959114 -0.1104291378962199 1.1092351164364818 255 255 242
-0.1699253297867313 0.0238522689123490 0.8206396787686723 189 197 208
0.4713638249078774 0.0552710959888010 1.1631271507959715 115 101 101
-0.4159778304198254 0.1827061816076148 0.7758066077071560 42 42 104
-0.1772426095319085 -0.1246623140981552 1.0722592093243515 18 38 49
0.5009144960368527 0.2358874680469928 1.1383918304744958 147 147 157
0.0181494348724907 -0.0825274390256029 1.1178532909786205 77 86 103
0.3728191564026144 0.0522645070690318 1.1268226400614316 95 89 93
-0.2383458612611035 -0.1243999116654837 0.8186554690771223 114 108 96
0.0717830001951916 -0.1386469611033187 1.2472247782260653 125 132 148
-0.2153240215152517 0.1584258976365835 0.9371102809382559 95 98 107
-0.0529623877523451 -0.0861912888713596 1.0858267793633689 126 122 113
-0.1073330177669459 -0.0720718658442815 1.0498694812803455 44 57 66
0.2335596032870603 0.0500802251139892 1.2048584660022306 163 163 151
-0.1155184142768963 0.2278060833333810 0.9764692439195574 20 34 60
-0.1553918258219692 -0.0740542704135344 0.8444231806498115 106 83 75
0.0225124321604678 -0.0693810571043399 1.1074348228729045 21 43 67
-0.1646856427335149 0.1178735927341994 0.8216005105207589 80 79 85
-0.1155184142768963 0.2278060833333810 0.9764692439195574 20 34 60
-0.1556272418306837 -0.0740794529332991 0.8454302587447323 106 83 75
-0.0670692517284950 0.0238677815243239 1.0579273403439637 49 68 100
-0.4135348300236116 0.1964718217887899 0.7814796992912126 46 36 73
-0.0620732759510225 -0.0890957038890381 1.0760833770634766 96 85 65
0.2808362556423336 -0.1069943316617301 1.3562186127990652 157 162 166
-0.0995542795271175 0.1823865815779579 0.9951053702587804 102 104 103
0.2563325884681071 -0.0349339653741388 1.2458198143152883 119 119 111
0.0437640497539417 -0.1597322858365443 1.2139463868619660 42 63 90
0.1636144798017083 0.2492967629820514 0.9771546950363752 59 68 83
-0.1986805552665935 -0.0475353654402000 0.8222798743161046 93 82 80
-0.4135348300236116 0.1964718217887899 0.7814796992912126 46 36 73
0.0204871899446046 -0.0911315051737543 1.1127856424319358 255 252 226
-0.1928215747411251 -0.1086388986048953 1.0078419852932747 143 133 108
0.3467717539278911 -0.0543473382533049 1.2020992570817397 161 168 176
-0.1982875458152548 -0.0608639145599208 0.8255922778606594 72 71 79
-0.4389722901558870 0.2037790366279688 0.7652310770076870 255 252 239
0.3728191564026144 0.0522645070690318 1.1268226400614316 95 89 93
-0.0551975360806525 -0.1028707959133777 1.1319345036758330 35 50 69
-0.1987392639791356 -0.0475424264345440 0.8223757671314902 93 82 80
0.1319676550098731 0.1002872618829526 1.1380369021226602 54 63 70
0.5002673449450061 0.0621120358229712 1.1764358599437776 164 172 159
-0.1660009040656044 0.1498085926296658 0.8146396581404884 81 75 85
0.2703685403756556 -0.1060444718677953 1.3652722605171701 125 92 121
-0.1839521298522084 -0.0859248954783861 0.8278850932945298 104 117 152
-0.4300388170540451 0.1836964601026712 0.7572401169360325 142 66 131
-0.2747440108574405 -0.0063713334695403 0.7714023801024743 142 153 136
0.1597914136102023 -0.0464365097842418 1.1897772372696054 147 138 123
-0.0456876410669787 -0.1017954066173106 1.1376021017354372 22 41 58
-0.2032541978711015 -0.1029794174247250 1.0012601625225552 150 134 111
-0.1508284040632080 -0.0727062421005015 0.8464923720873617 156 146 136
0.0717933680626214 -0.0421179728951044 1.1032754577437638 116 110 114
0.1654473805177017 0.2508452140864256 0.9849333348511080 50 63 79
-0.1768694928187375 -0.0586574314814422 1.0090893767591111 150 156 156
0.2763900654231295 -0.0464620013810456 1.2499908290785502 152 147 128
0.2793183089178871 -0.0922374066717174 1.3514241408394194 146 153 159
-0.0816218636537266 0.0229865632832242 1.0405720944736128 184 180 179
0.4166387885393453 -0.0418597121977309 1.1680040859096521 119 123 122
-0.0816218636537266 0.0229865632832242 1.0405720944736128 184 180 179
0.4240443927507943 -0.0413226710649431 1.1665171371641199 153 169 158
-0.1080331623294009 0.0186049810942570 1.0291995330058112 179 179 181
-0.1879958762080627 -0.0318010814141715 0.8246168789232187 78 73 79
0.2505270666493250 0.0694578382334581 1.2107441390904223 128 109 103
0.2848180257974911 -0.0358083849761827 1.2542552619473453 139 128 108
-0.1085903095881987 0.0347600081846785 1.0258054918422341 182 181 186
0.0675170050843689 -0.0294154907793923 1.0990480445783106 46 68 91
0.5827538607694730 0.0852274425585677 1.1695022490980393 191 223 255
0.0810414186798309 -0.0291763052663165 1.0936005217993139 125 136 156
0.3616702287641383 -0.0456729820594526 1.1946909269846493 141 132 135
0.0004361729028146 -0.2643545869244538 1.2705429088470672 99 105 131
0.5770430209266946 0.0762760429679738 1.1793572217445265 35 48 90
-0.1843895951174982 -0.0851463893351530 1.0103871463975891 52 54 51
-0.0809298800274036 0.0390196166755153 1.0369566087248123 178 180 177
0.2586439016624269 -0.0309181874938351 1.2385271365834518 154 152 139
-0.0948164955773107 -0.0263069026569013 1.0434973197419051 155 138 110
0.2019935931376797 -0.0453483501210114 1.2105247814882307 155 150 121
-0.0043644942398043 -0.2346979573159066 1.2747223852514278 211 248 255
0.2335152666568453 0.0652242178932948 1.2014979960657437 137 134 117
-0.0809625110021868 0.0551207638160247 1.0334419835759321 175 174 169
-0.0968326316800356 -0.0229276087170266 1.0421187995305636 105 88 81
0.0734983284190095 -0.0197438747877509 1.0912169466662078 111 87 75
-0.1417993877661822 -0.0201242428095928 1.0206200070974261 149 142 136
0.1669363326368470 0.0744704737234726 1.1661905405102129 134 130 119
0.0009087521684722 -0.0184860141896015 1.0587054149099362 158 152 140
-0.1988595078971140 -0.0153407218045587 0.8151883293812749 88 80 77
-0.2617122543841949 -0.0590998543203874 0.7932184276944788 95 85 93
-0.1687655109720238 -0.0464652996461329 0.8367224072549575 197 197 197
-0.1111615729322823 0.0498492121217931 1.0233134684985241 179 180 185
-0.0586774691905992 -0.1692763806475588 1.1856981727176330 169 179 189
0.0472773598790621 -0.0229783553971029 1.0778046257417799 99 82 66
0.1063361921677471 -0.0160515609837289 1.1086039864612895 101 82 68
0.3364933466406561 -0.0314693182061006 1.2213115476322551 149 153 152
0.5802849428331671 0.2748347243246291 1.1347407292452083 107 118 62
-0.2879692210275632 -0.0570338928892574 0.7768015874776133 134 143 152
0.2252182609790511 -0.1389775294298913 1.3561124297951703 79 88 127
-0.1493304136319655 -0.0221695234893121 1.0122087497814543 159 152 159
-0.0800596945902804 -0.0158903722732739 1.0475208602451216 99 97 98
-0.1333928921345993 0.0522697492452236 1.0154822094914919 94 118 152
-0.1666228991711432 -0.0126703407082127 1.0021011362183674 101 77 73
0.1849089082113255 -0.0282323961151893 1.2129458934715696 34 49 70
-0.1268505274826095 -0.0113741360161026 1.0203870308349567 103 90 81
-0.2503556907423438 -0.0082599627485743 0.7859140203396485 74 62 82
-0.2152211997231457 0.0454535073492312 0.9624963091503040 168 168 168
-0.1978644936542408 -0.1442271532361946 0.8731641212712978 116 137 180
0.0009087521684722 -0.0184860141896015 1.0587054149099362 158 152 140
0.2659968447983357 -0.1047631662234779 1.3737995192020180 254 236 224
0.3754342368350356 -0.0155859691162374 1.1178302767490538 254 253 248
-0.1917069092180834 -0.1334189077669313 0.8688399830365432 104 125 168
-0.2511465678761322 -0.0141758924467825 0.7867338787111294 164 159 153
0.1113293756424521 -0.0019826850787106 1.1141689044562892 137 120 112
0.3873979671666225 0.0927988903108880 1.1007528098831774 85 94 101
0.4495057652107592 -0.0713259722092410 1.1756468773819795 121 114 104
-0.2510937808340079 -0.0141571159607030 0.7866031984499089 164 159 153
0.0043150868654341 -0.0300226093113174 1.0535810878340928 176 168 155
0.5136714436840574 0.0043214727486566 1.1903407507491586 93 79 76
-0.1987303247674079 0.0001492288992765 0.8121856819569845 61 52 53
0.0250917062216403 -0.0280285488593530 1.0646047392321298 167 158 141
-0.1795607521907625 0.0025151351197262 0.8219406644534493 71 64 54
0.3974350565791180 0.0104726262143111 1.1323695222004031 170 159 139
-0.1956937468018358 0.0041221321632808 0.8124769295633721 87 74 65
0.0894541207512158 0.0109238287181938 1.1017768082220583 171 164 146
-0.1058939550690165 -0.1077736445084250 1.1071268073862854 44 59 82
-0.2504735691519485 -0.0054725790148306 0.7851379052071432 60 59 67
-0.1062292017607148 0.1475689301119211 1.0004088836481106 157 160 167
-0.2323256789764638 -0.0383282896816369 0.8139927979946039 50 63 98
-0.0070661606162959 -0.2348237945015643 1.2560689775584042 255 255 251
0.0642065157478826 0.1623220050025231 1.0609832878121643 100 84 85
-0.1986493100142910 0.0102324819605615 0.8097712294027728 91 81 72
-0.2498456214128100 0.0104913098668924 0.7811912544358688 73 66 82
-0.2278702844258968 0.0111669297815446 0.8019210525889874 95 128 163
0.3942284121177714 -0.0014395196461866 1.1324722552916666 182 161 130
-0.1777248270116457 -0.0701407457010144 1.0118893324382119 168 172 175
0.3105435213318367 0.0232913555317510 1.2500590989221336 142 140 119
0.3980509057157222 0.0221268266960121 1.1276451591383749 117 90 97
-0.0973738431467873 0.0195379182503068 1.0328407288024433 119 100 94
-0.1997474040720551 -0.1008491484958717 1.0023712383347905 93 89 80
-0.1986620930353434 0.0102347527696658 0.8097995498119114 91 81 72
-0.0933917109142149 0.0130404679485563 1.0361532972986782 136 125 133
-0.1521672743830938 0.0205063536670852 1.0024729583189420 79 69 70
-0.2736652886792365 0.0152327800179723 0.7689743015172293 76 75 73
-0.1520718119014517 0.0402028064245474 0.9980232351734288 74 64 65
-0.0933878117175918 0.0444181970424313 1.0295817909695968 130 119 135
0.1882493151883780 0.0293946298143326 1.1851922780896396 160 151 136
-0.2703431909540769 0.0433690497352042 0.7637025080913733 111 117 129
-0.2005680989299666 0.0020431565984699 0.9141122366251363 117 119 118
0.3133991022624453 0.0040592807519934 1.2436311326376412 63 78 97
0.2429672568319998 0.0037882927844042 1.2110754513784123 150 137 121
0.3395663575631457 0.0317073613715687 1.1973803783252708 133 129 120
0.1560756142221716 -0.0620190277546591 1.1855854142333559 168 164 155
-0.2276796702852077 0.0112333122215164 0.8013635415720810 95 128 163
0.2335168115379364 0.0338254820522900 1.2090029138015346 148 140 129
-0.2778402587423633 0.0237782718757040 0.7619461501328876 86 89 98
-0.2214224553724982 -0.0810046024513290 0.8087714824309367 157 150 140
-0.1753662353015232 0.0261958858708045 0.8179510814053842 77 65 79
0.3992574834631584 0.0413556894055485 1.1266249091254776 112 86 87
-0.0585813524845850 0.0355189820205523 1.0603832972708205 111 128 154
-0.1673280232395354 0.0388686223045170 0.9911161041432139 72 70 58
0.1676444033392152 0.0260140109205886 1.1742874790113271 155 147 126
-0.0933917109142149 0.0130404679485563 1.0361532972986782 136 125 133
0.2473618932530426 0.1095727618386152 1.2005551368599237 82 67 64
0.1264192083780192 0.2247495794356895 1.0674289855778485 132 139 157
0.1883659347389122 0.0442156166126850 1.1816498906204855 159 154 134
0.0130768193592293 0.0824515112063579 1.0259563297810617 102 101 117
0.4109331551324912 -0.1784929627002581 1.2684563869622287 102 119 165
-0.1004909231035358 0.0253445099898175 1.0299985321532441 106 91 86
-0.1274198180230852 0.0377067244727151 1.0219890217311485 57 82 113
0.4109331551324912 -0.1784929627002581 1.2684563869622287 102 119 165
0.2537042043886065 0.0052086180985717 1.2167528536021781 151 139 125
-0.0342724739499158 0.0415224645007528 1.0613942440441988 132 122 113
0.5770856161736357 0.0537998791021511 1.1856045681094232 61 47 170
0.2541950066116825 0.0518345774343063 1.2160471027474964 156 150 138
-0.1755387531809622 0.0261942934012615 0.8184324501006990 77 65 79
-0.2808756300058698 -0.0873653401850276 0.7795449129309814 169 161 174
0.2736086229396428 0.2702815636257103 1.1646068223780162 45 57 69
-0.2014973497952562 0.0317108608681668 0.7986739772985562 99 99 107
-0.1273209427579112 0.0426383284714095 1.0203720339865745 65 86 115
-0.1004599295987282 0.0462343310716851 1.0251281353369677 96 80 83
-0.0143319716573383 -0.0023550550480551 1.0527282521644821 99 92 84
0.1784519013183470 0.0935730269189306 1.1653287485649213 144 124 117
-0.2514332001913853 -0.0500019027153212 0.7948907987149395 190 194 197
-0.1885619842690480 0.0412588588860600 0.8086075884341181 95 75 66
0.1847929181715316 0.0784290674455794 1.1728913737293387 102 81 86
-0.2505177672581262 0.0409897500185364 0.7752843112970720 79 69 78
0.3141288253898875 0.0701222822498223 1.2392636362285339 63 55 66
-0.1975043573745936 0.0441038044667772 0.8019378699326140 158 153 131
-0.2899630188027594 -0.0674572128774239 0.7762081487140325 153 171 159
-0.1758041520338779 0.0347633151028417 0.8151983229773733 112 111 117
-0.1975043573745936 0.0441038044667772 0.8019378699326140 158 153 131
-0.1786034888748160 -0.0541517321699553 0.8919884322245641 121 125 126
-0.1646590056367670 0.0354809429412480 0.8169501817104821 96 95 93
-0.1754435826682004 0.0543649225732806 0.9817069781912529 149 132 125
0.1885822276203993 0.0767072774590041 1.1747363531491002 157 149 128
-0.1855799575844915 0.0528988306141659 0.8081429614422202 85 74 78
-0.2608338073414290 0.0530988614380740 0.7669303988368240 107 84 78
0.2468211232644410 0.1456246630488397 1.1915982520371042 92 80 80
-0.1496703092718755 0.0707715091965268 0.9924552933578260 141 144 137
-0.2187791515566669 0.0977750643472396 0.9497831373118648 76 76 86
-0.0427974118586998 0.0771613301223624 1.0488431445445039 123 114 105
-0.1999813809109328 -0.0136208954451623 0.9172772735361421 115 117 116
0.0736705169100364 0.0811479451939460 1.0756630687935027 149 152 145
-0.0649991505314529 0.0843399582928162 1.0311238431266507 146 145 141
-0.1661581479901656 0.1160216220145683 0.9735423412725199 55 59 60
-0.2504498659549497 0.0590039578977789 0.7710225161559453 62 57 61
-0.1862820396108685 -0.0070300184103681 0.9891568130298193 170 169 165
0.3727919526806407 0.0364407000116344 1.1330844236939466 118 102 105
-0.1215020592769695 0.0779055594413032 1.0006784798712547 138 138 138
-0.2506617671968708 0.0781635246005997 0.7664205143420765 183 180 171
-0.0649991505314529 0.0843399582928162 1.0311238431266507 146 145 141
-0.1945711278089047 0.0144645177496695 0.9872224867078411 118 138 162
0.2252193066000725 0.1005594782319058 1.1873405982681509 54 61 69
-0.2000695042048540 -0.0137744318842088 0.9174077758870660 115 117 116
0.1673029857719245 0.0900159507775437 1.1604393948429783 152 146 122
0.4293911694613151 0.0421739663668557 1.1427891449957090 174 167 151
0.1287292499545963 0.0962256853246870 1.1516929468977584 80 96 112
-0.1734037591763482 0.0699478825489650 0.8092239186742226 160 154 130
0.0857496786483647 0.0926440572900347 1.0603256923460052 149 145 133
-0.2504276252095332 0.0590013289238320 0.7709791963287631 62 57 61
0.4451259642496023 0.0477177478567206 1.1588795500800892 47 63 99
-0.1853237137659483 0.0053168578147410 0.9910753757722471 72 78 92
-0.1421550423871766 0.0755582178056887 0.9896370437926705 121 128 121
-0.2044704821875267 0.0213304118083747 0.9846908169451548 66 76 86
0.3638466876619402 0.1479052800202701 1.1259808047616653 46 54 56
-0.0830680225885964 0.0972873563891868 1.0217354823487073 131 128 123
-0.1838736941636766 0.1035697049094342 0.7878641152899000 141 122 105
-0.0338057574942405 0.1012390565932449 1.0488116738538868 65 56 47
0.4707690124667844 0.1188617428447409 1.1489884770059102 153 137 121
-0.0102494650075601 0.1039383957356127 1.0246459083549704 156 147 140
-0.2729874762112851 0.0907961394190095 0.7470142740356202 139 145 131
-0.1764975863304254 0.0899583926102446 0.8503336873663192 72 83 85
-0.1195858494398291 0.0659578270058463 1.0039800220872970 63 78 99
-0.1493450680721742 0.0889291838209705 0.9868827812301817 131 123 121
0.3883138805528995 0.1852419316192105 1.0890297199458090 174 172 175
0.0201364817679780 0.1055536886232443 1.0322580250568214 154 155 149
-0.1764975863304254 0.0899583926102446 0.8503336873663192 72 83 85
-0.1892520703008527 0.0579761410105110 0.9718539001424569 67 78 96
-0.1887172343611886 -0.0027025960025842 0.8170906708709713 131 132 118
0.1986527337218023 0.0569218718050595 1.1813212870622136 60 67 85
0.4274710107545296 0.1216490224418302 1.1193062509363378 149 150 132
0.1742982384692484 0.1374286439165464 1.1546709116160983 69 52 42
0.3888720659705816 0.2007805046427819 1.0853464591523165 163 163 163
0.0529148349000529 0.1108900386274265 1.0514169962548261 153 150 133
0.3158831677719867 0.1339468698958304 1.2210322247558396 132 132 132
-0.1519541942002467 0.1053497052008583 0.9836122950977362 74 62 62
0.0585934249672368 0.1156868164313137 1.0465663001618950 127 120 110
0.4980380316053821 0.1387742709520400 1.1596726511595050 102 80 66
0.2869442853409378 0.2004517298924307 1.2080103063638734 73 82 111
-0.1806806481238139 0.1052427380689996 0.7973035018777326 172 169 154
-0.0338057574942405 0.1012390565932449 1.0488116738538868 65 56 47
-0.2123340524596609 0.0898927214407428 0.7886512268121791 52 64 86
-0.2752370917652487 0.0100196369572650 0.7676158669461919 149 153 138
0.1700547146319894 0.0503768556949993 1.1705770442214862 163 157 141
0.5748417097936079 0.1623705979898029 1.1583371184016940 60 63 118
0.0506442579378077 0.1241071624846528 1.0534254401078735 141 133 120
0.3397877241396645 0.1439133629302242 1.1727012212317292 121 116 110
-0.1519606850783132 0.1158764302515395 0.9809481498511997 85 76 77
-0.1824377279410575 0.2085451998501714 0.8297047787485082 30 47 57
-0.1989377056304393 0.0946222743319151 0.7916038732223624 85 73 59
0.4235831849935831 0.0681450187508353 1.1337069000037512 171 167 142
0.1270087774530317 0.2061451383302494 1.1121336457869622 120 123 112
0.2506090021626889 0.1456197567117780 1.1936950539739968 87 77 76
0.2797599985768652 0.0686482779511437 1.2362222331818873 88 100 116
-0.2754105327912555 0.0908421216602074 0.7505201796884927 155 158 131
0.2797599985768652 0.0686482779511437 1.2362222331818873 88 100 116
-0.0514330676926112 -0.0170983929001693 1.0600784759393715 135 127 114
0.5101894384080948 0.1784644039458386 1.1545329575941723 92 97 101
0.2538267998398062 0.1489495949849298 1.1949715768262146 130 126 115
0.2545717398569665 0.0680595221981273 1.2138616237586120 151 148 129
0.4753237429067583 0.0663981618122851 1.1634537960169531 129 102 107
-0.2745748960456599 0.1007061957895372 0.7423794870957324 139 141 138
0.2562247597171246 0.1881126193450678 1.1872039596836406 132 136 135
0.4590307764071113 0.1501528358071139 1.1377380736509466 59 57 42
-0.2503076483963086 0.1174605531629250 0.7576729928979069 120 84 88
-0.1891267015310056 0.1101982327819494 0.7927716540217663 131 112 97
-0.2724079155089394 0.1016739285874850 0.7490477982227474 111 99 101
-0.0384431752096973 0.1115983212144976 1.0436113007783019 72 64 53
-0.2504111638593119 0.1044510289499638 0.7607328397289008 93 73 75
-0.1702567310204698 0.2009360654574748 0.8131342290355659 102 117 138
0.4757391111074195 0.0813750044901091 1.1599538950051211 106 81 87
-0.2225999788307711 0.1508304067459928 0.9353700155357572 66 75 82
-0.2508090229666070 0.1075132303561111 0.7603947931931169 62 44 44
-0.1631810504837741 0.0369613737088581 0.8418826009101519 65 73 94
-0.1658025879295318 0.1227001038662897 0.9728260776051002 124 120 108
0.4810324653271794 0.0819329618299156 1.1625969331636001 158 153 134
-0.2379572331552329 0.1334721378863023 0.7640952700858415 95 118 132
-0.1733614205920379 0.1184215854715082 0.7985908225483656 155 148 129
-0.2916959480643920 0.0236844115788691 0.7545377211092920 113 118 137
0.4766830302078653 0.1815571482619109 1.1394287263196130 105 85 84
0.3436319736018046 0.1830921165343894 1.1571454885998649 59 52 59
0.1813784640136382 0.1814981796926615 1.1487774481707618 82 68 67
0.5740368868441940 0.0982524022888247 1.1761554773145351 230 247 255
-0.2500954428022809 0.1204412295215195 0.7570105061031939 100 72 71
-0.2505276092707808 0.1234293746421928 0.7565575251233272 88 67 72
-0.0973887738226521 0.1994038618480222 0.9934021915818360 77 86 93
0.4478930299097674 -0.0435290629832678 1.1824033524717632 65 101 153
-0.1733614205920379 0.1184215854715082 0.7985908225483656 155 148 129
0.1358183625086085 0.2589808985696259 1.1101937789009031 49 58 73
0.3476780686157570 0.0909956161111290 1.1687523102605240 132 132 124
0.1189771947352389 0.1132845717953239 1.0897136414233657 161 166 159
-0.2881270686615773 0.1517991355752073 0.7293854489966132 201 194 188
0.1881009375833444 0.1880565312353063 1.1492476170809887 123 120 113
0.4377398859583976 -0.0435248768352035 1.1700972061953099 68 101 154
0.3476784358782189 0.0909224907243920 1.1687118415759308 132 132 124
-0.1988193533878966 0.1292491236318461 0.7835242977783623 87 77 68
0.5107063166299228 0.2823586997847871 1.1286669856486853 45 56 60
0.3436597035385821 0.2154439167453061 1.1501362998797324 53 57 58
-0.2594596150893093 -0.2492610401370364 0.9122122235174877 235 255 254
-0.1658204994053896 0.1753975995624683 0.9613077577754163 108 108 108
-0.3092115307634321 -0.2415292397950436 1.0439733416533197 202 209 219
-0.1986334850515770 0.1453535021498729 0.7799220821300705 78 74 62
-0.1660672530320740 0.1788813554006486 0.9590535026581521 53 55 52
-0.3094276672383649 -0.2359118866940600 1.0486172111240621 137 126 168
-0.1988159562148278 0.1292489944376900 0.7835239341398448 87 77 68
0.5715856993374169 0.1248311984817937 1.1738111870016354 223 245 255
0.1488335880737049 -0.0704466976328563 1.2000401735407418 63 84 115
0.3465151614283399 0.0990661775526944 1.1665672021162798 127 132 128
-0.2509001441517378 -0.0028348599744146 0.7842799421640820 147 148 152
-0.1733893071655933 0.1497439215267270 0.7912002148219848 143 134 127
0.3159097106173326 0.2409543453763636 1.1975749783016425 104 108 109
-0.2455266019924034 0.1503029549585837 0.7509693135697388 177 165 143
-0.2387378912481249 0.1593435276314306 0.7539069726292760 171 159 137
-0.2198456057569803 -0.0638275158895862 0.9889078365948888 97 107 143
-0.1911040338528199 0.1662221792046443 0.7734767203118874 61 67 89
0.2594515947803234 0.2446315456093857 1.1211950865862907 34 42 61
-0.1515887551224001 0.1851392746349745 0.9644766826057651 64 57 64
0.3792564269122206 0.1243259767036972 1.0987652298597304 67 69 68
0.0018968464944777 -0.2186403687462040 1.2720212392722547 69 74 94
-0.0127565192674795 0.2156853194383223 0.9925246564339781 109 117 136
0.2009158815862902 -0.1811773368668836 1.3733067537482617 92 95 128
0.2011608792749846 0.2536364109392238 1.0896682453225641 59 71 87
-0.0765021293727739 0.2257012267794054 0.9454053859877142 77 94 104
0.3562119203032277 0.2766892587611799 1.1015816015359792 37 53 66
0.0145052841675921 0.2338702434416436 0.9251557410631378 23 35 57
-0.0228128745448378 -0.2688517749272265 1.2670957220470602 255 253 255
0.2731344464965301 -0.1606857051290630 1.3720691245555516 255 255 251
0.1779212394788572 0.1375510427850737 1.1555212602300675 77 76 81
0.4567924436903253 0.2578775786303285 1.1137631161717647 21 31 40
-0.2006644982351661 -0.2024552432380575 1.1470507232875586 60 74 103
-0.1138595407237990 0.0786429584023897 1.0104200093572262 134 138 137
-0.1417630699643792 0.1836982763301320 0.9925375566913582 32 47 76
-0.0631048341111183 -0.1658926454252460 1.1826362426170107 101 124 158
-0.2006644982351661 -0.2024552432380575 1.1470507232875586 60 74 103
-0.0510848406194259 -0.1832441513255373 1.1921999813628155 154 161 167
0.0176185277810438 0.0849465721792838 1.0281535259531587 137 123 110
0.0637088314197196 -0.1850956081989067 1.2546800760879127 168 169 171
0.1985553062128360 0.1086556607099331 1.1711984018495227 52 65 81
-0.1592502386695782 0.0298600927536175 0.8183870277465551 87 90 99
-0.0510614377356569 -0.1682467073137337 1.1886881215985310 143 150 158
-0.0591957388562447 -0.1547224699732209 1.1817847220900688 156 166 178
0.1055030161487443 -0.1565942228895645 1.2925803533015405 93 110 140
0.3359164854432620 -0.1629087434331015 1.3989062763559210 100 88 92
0.3359156170531129 -0.1629047925257214 1.3988980380034510 100 88 92
0.3191722623992662 0.1610233556712969 1.2085171066642724 106 105 113
-0.0051202372725361 -0.2657774803461241 1.2628863740367491 134 151 169
0.3513468820526476 -0.1626438181771371 1.4099093953883124 98 88 99
0.3331121152707212 -0.1536819742645037 1.3963186391339750 163 170 180
0.3299202742955446 -0.1388727038194699 1.3903074916330584 155 158 173
0.2807444261782231 -0.1070193520425644 1.3570135807822532 134 143 152
0.2742683586908370 -0.1291073619492511 1.3591260795668814 251 255 255
-0.2047778235973387 0.0033431298491633 0.9885122138913643 69 76 86
0.3192745133832282 -0.1266303473049958 1.4060343040432084 48 50 98
0.0540294456726320 -0.1067221678220588 1.1107089325278032 78 86 89
-0.1262109876903182 -0.0941405382047743 1.0421506416888711 157 153 142
0.0441759322430068 -0.1059014783989815 1.1062516418017976 168 165 160
0.3147328510673842 -0.1248317262562034 1.4261542661290454 48 62 97
0.0647582888505275 -0.0953395619803979 1.1090678495381783 171 159 143
0.0417985084597770 -0.0901963399602689 1.0958146253094239 138 138 126
0.4806963075500563 0.1731964742449418 1.1421363493760301 153 158 138
-0.1352672738435572 -0.0839813341727963 1.0372460787310303 154 144 117
-0.0689446022911654 -0.0770963788215446 1.0711105943648480 162 147 118
-0.0559664635582752 -0.1029436678266637 1.1342045903582840 39 56 76
0.0177339263205313 -0.0491731169670999 1.0783579916260921 42 51 66
0.1262258120966054 -0.0508103315186239 1.1706340684749572 159 153 129
-0.2552687802734853 0.0062623368237533 0.7808195571004174 124 127 136
0.1510226113059231 -0.0512291792316141 1.1850574584745213 160 148 126
0.3437338128309780 -0.0459854746939522 1.2057790348708461 154 152 153
-0.1849494447155516 -0.0323270704478380 0.8264662115990652 97 85 89
0.4643866783052893 -0.0582358714420406 1.1813005764884557 127 124 119
-0.1986580564208842 -0.0317399697674520 0.8190559185124113 103 94 89
0.0076630144588670 -0.0343628629731786 1.0538324024616699 112 112 122
0.2774817078746336 -0.0696640759335222 1.3466277245450202 100 101 119
0.1168560305932757 -0.0349996556148331 1.1349662287192521 118 151 186
0.3668134777664608 -0.0351371323237176 1.1814376874025028 60 75 104
0.2739394783588751 -0.0368589748426276 1.2455517526275672 154 138 122
0.3589825126439025 -0.0311132214528758 1.1854108581391309 90 93 134
0.1998567127514007 -0.0601288678996058 1.2108082436115517 133 126 108
-0.1986909855224890 -0.0205974684549431 0.8165416148534735 101 93 90
0.3561152531456810 -0.0144961789840350 1.1638342484098994 240 237 232
0.3643404649565212 -0.0106373201445564 1.1411708221036283 255 255 250
0.4551362614920946 -0.0319773691479955 1.1727284721464406 129 141 129
0.0136322239507202 -0.0097012481812011 1.0628447323376657 167 155 139
0.3592916974038974 -0.0086829427578701 1.1579231466923254 254 254 244
0.2359025506115342 0.1544875500846269 1.1836816436827939 126 131 124
0.4081164448463636 -0.0049707035816040 1.1372554604236946 173 147 96
-0.4102741057484957 0.1834860952972147 0.7745389394464102 236 232 207
-0.0369010424047803 -0.0071992551392539 1.0660448694291171 141 139 124
-0.0826922509506057 0.1260514118418744 1.0165862087138278 138 138 136
0.0074988629667513 -0.0048114390290413 1.0596734977724780 169 160 151
0.0074988629667513 -0.0048114390290413 1.0596734977724780 169 160 151
-0.2909209671845738 0.0877258909362185 0.7423317823190656 255 254 255
0.2247181949792551 -0.0031859868756745 1.2054218756963719 118 122 149
0.3911894247498883 0.1615381273312613 1.0958725085422740 156 151 145
-0.1033241620024363 -0.0038047666065315 1.0338139729364675 152 149 132
-0.2536376503940790 0.0965730036647425 0.7611689022061301 99 70 74
-0.0827498164597343 -0.0023370727381582 1.0452135695871827 155 152 137
0.2059111124281914 -0.0003811511671626 1.1910423127814178 156 145 117
0.2593189144459258 0.0007532510428187 1.2204219597122212 86 99 118
0.3523866738254822 -0.0060487041387912 1.1680772989308297 236 222 193
-0.0819523228668901 0.2054524168136837 0.9476946098202411 54 67 86
0.4619099525746060 0.2004950256798738 1.0036379450411599 0 13 54
0.2164504166249696 -0.0385920902040728 1.2205977154909329 88 87 85
-0.0859703125336116 -0.0095712764616102 1.0418401651983134 146 143 124
0.2237433884333078 0.0012706597837971 1.2010111929019764 144 132 108
-0.1303331994422912 -0.0003863191695016 1.0183870920760836 152 146 134
0.4294311702530800 0.1756875645839276 1.1137815808167815 150 145 125
0.1101353371055447 0.0016425354334883 1.1126848443364497 169 162 146
0.5014546296191934 0.1895103739594049 1.1489933031316235 135 137 123
0.2642078983044203 0.0059162352224325 1.2228587397591095 139 124 105
-0.2756585465919258 0.1074630630189073 0.7463514063028016 166 160 138
0.0836154842381636 -0.0976108517101588 1.1767288371335984 150 179 213
-0.1487691320037467 0.0061606128753240 1.0069740847407211 150 143 133
0.0652205124595320 0.2018360167719700 1.0518925547469298 86 75 71
0.0744341998733424 0.0085416978833912 1.0926083234090163 166 159 143
0.0651553809213379 0.2017972091042619 1.0519787078270708 86 75 71
0.4764946304371988 0.1963030410981018 1.1352193134269137 103 89 88
-0.1523044954984991 0.0085956435399315 1.0050176381707669 95 79 79
-0.0130949428036109 -0.2835034874778685 1.2637941684346237 255 255 255
0.3249856920641498 0.0049204110109623 1.2163234123966440 119 115 106
-0.1031862136248100 0.0117829199456974 1.0302063815538844 151 142 135
-0.0054396513100989 -0.2659143720727266 1.2632625126643984 134 151 169
-0.2401066208085644 0.1195052694385996 0.7691758146905261 119 144 151
0.2206552181846767 -0.0433314819816529 1.2446181670420253 104 93 97
-0.0764675340667068 0.0118222673606826 1.0451928656780547 162 152 143
0.1103295890744066 0.0143969524416404 1.1116103492852230 173 165 142
-0.2590630187990838 -0.2640779570338876 0.9187005122048927 254 255 255
0.3541232715992407 0.0065706491943592 1.1675513763847780 164 160 151
0.2622337709183407 0.0166935137848210 1.2273855753317726 146 140 124
0.2114992844048708 0.0004509947430573 1.1943209446438081 163 158 138
-0.0432659815134527 0.0152377712012706 1.0619174344846847 143 134 125
0.3069711411387679 0.2108501683834019 1.2100852364289043 49 47 58
0.0430448739462015 -0.0760038137584461 1.0955769350276758 174 169 165
-0.0862569832202484 0.0156278606232690 1.0394363050778777 102 80 82
-0.0205651335335026 -0.2200945742648653 1.2515304348086203 82 91 124
0.3401178854281980 0.0125802557249570 1.2002990750468101 130 133 124
-0.1334762045132754 0.0163523509322919 1.0235454617340616 57 80 112
0.0400332716119346 0.1791094623845012 1.0410229227675019 100 82 60
0.4002542974511060 0.0029557850783136 1.1355719807342421 72 64 61
-0.0825336291270589 0.0141033855536517 1.0413944249455349 149 142 132
0.3959135320478140 0.0056759812158130 1.1320451240274576 143 124 110
0.1264242139186970 0.2351609481151803 1.0746269856738131 44 49 69
0.4112705602331781 -0.1819069597178823 1.2689803538320203 84 87 130
-0.1888518146543963 0.0036172697582147 0.8153331907334238 153 143 131
0.4362405609302346 0.2708444036082873 1.0950551729642619 64 74 86
0.2174624348070903 0.0009107885908464 1.1972320935978620 157 143 117
0.2510982023163546 0.0291548180733487 1.2181523196159103 152 148 137
-0.0590431074210700 -0.1931425388777229 1.1820228540413804 116 112 127
-0.1489497389928264 0.0224162439505185 1.0033344546852374 148 141 123
0.1944561205977538 0.2095506551368958 1.1482353087507282 121 122 124
0.3765443099450080 0.0331144587595700 1.1290811350439349 167 170 161
0.1986688999725467 -0.1665648469368980 1.3589524595321203 79 89 114
0.3105449858204445 0.0364127615801953 1.2483880558465312 128 132 117
-0.1035564561108700 0.0273821392648025 1.0269363358854773 157 147 138
0.2359187931360489 0.0162354691151172 1.2130317454079320 163 158 152
-0.0595354170327976 -0.1846035951993802 1.1907584744284525 126 142 158
-0.2536670137236002 0.0133404824382923 0.7796075648368231 91 74 90
0.2734941412824849 0.2280160058212459 1.1968148999480286 81 96 129
0.1700527789634540 0.0503263561024541 1.1707231638745557 176 173 166
0.2542220369974536 0.0366449154459233 1.2192328012310332 151 141 129
-0.0824109505118614 0.0297530334263160 1.0376506276158777 156 149 133
0.4113887771900548 0.0029627337724014 1.1402971410617424 116 93 99
0.3141338142785109 0.0396211133366137 1.2438511379824837 84 76 73
0.3403704249056338 0.0395489842422892 1.1938387442621858 148 147 152
